# .PCD v0.7 - Point Cloud Data file format
VERSION 0.7
FIELDS x y z rgb
SIZE 4 4 4 4
TYPE F F F U
COUNT 1 1 1 1
WIDTH 1064
HEIGHT 1
VIEWPOINT 0 0 0 1 0 0 0
POINTS 1064
DATA ascii
-0.29740134 0.25962433 0.80100006 4293323481
-0.29628932 0.25994846 0.80200005 4293257688
-0.29517362 0.26027259 0.80300003 4293389274
-0.29368848 0.26027259 0.80300003 4293257688
-0.29220334 0.26027259 0.80300003 4293389017
-0.29035613 0.25994846 0.80200005 4293389017
-0.28887284 0.25994846 0.80200005 4293389017
-0.2870312 0.25962433 0.80100006 4293586394
-0.28554973 0.25962433 0.80100006 4293454808
-0.28442293 0.25994846 0.80200005 4293520088
-0.28329241 0.26027259 0.80300003 4293454295
-0.28180727 0.26027259 0.80300003 4293454808
-0.28032213 0.26027259 0.80300003 4293520860
-0.27848974 0.25994846 0.80200005 4293455067
-0.27700642 0.25994846 0.80200005 4293192665
-0.27552313 0.25994846 0.80200005 4293390044
-0.27403983 0.25994846 0.80200005 4293258458
-0.27221668 0.25962433 0.80100006 4293127385
-0.27107322 0.25994846 0.80200005 4293061592
-0.26958993 0.25994846 0.80200005 4293192667
-0.26810661 0.25994846 0.80200005 4293324253
-0.26629087 0.25962433 0.80100006 4293389276
-0.26447883 0.25930023 0.80000001 4293455067
-0.26299924 0.25930023 0.80000001 4293652446
-0.26119271 0.2589761 0.79900002 4293520860
-0.26004001 0.25930023 0.80000001 4293455067
-0.25856042 0.25930023 0.80000001 4293389274
-0.25708082 0.25930023 0.80000001 4293520860
-0.25560123 0.25930023 0.80000001 4293324251
-0.2541216 0.25930023 0.80000001 4293324251
-0.25264201 0.25930023 0.80000001 4293258458
-0.25116241 0.25930023 0.80000001 4293192665
-0.2499949 0.25962433 0.80100006 4293324251
-0.24882372 0.25994846 0.80200005 4293258458
-0.24764882 0.26027259 0.80300003 4293258458
-0.2458571 0.25994846 0.80200005 4293258458
-0.2440691 0.25962433 0.80100006 4293390044
-0.2422848 0.25930023 0.80000001 4293455837
-0.24080519 0.25930023 0.80000001 4293587423
-0.23962475 0.25962433 0.80100006 4293455837
-0.2381433 0.25962433 0.80100006 4293521630
-0.23666185 0.25962433 0.80100006 4293324251
-0.23547401 0.25994846 0.80200005 4293521632
-0.2339907 0.25994846 0.80200005 4293587425
-0.23279731 0.26027259 0.80300003 4293587425
-0.23131216 0.26027259 0.80300003 4293587425
-0.22982702 0.26027259 0.80300003 4293521630
-0.2280575 0.25994846 0.80200005 4293586653
-0.22629169 0.25962433 0.80100006 4293520860
-0.22452958 0.25930023 0.80000001 4293521630
-0.22304997 0.25930023 0.80000001 4293455837
-0.22184734 0.25962433 0.80100006 4293455837
-0.220641 0.25994846 0.80200005 4293390044
-0.21888444 0.25962433 0.80100006 4293455837
-0.21740298 0.25962433 0.80100006 4293455837
-0.21592154 0.25962433 0.80100006 4293455837
-0.21444008 0.25962433 0.80100006 4293390044
-0.21322449 0.25994846 0.80200005 4293587423
-0.21174119 0.25994846 0.80200005 4293587423
-0.21025789 0.25994846 0.80200005 4293456091
-0.2090349 0.26027259 0.80300003 4293390298
-0.20729129 0.25994846 0.80200005 4293587677
-0.20555137 0.25962433 0.80100006 4293390298
-0.20432469 0.25994846 0.80200005 4293455837
-0.2030943 0.26027259 0.80300003 4293653216
-0.20160915 0.26027259 0.80300003 4293587423
-0.20037323 0.26059672 0.80400002 4293587423
-0.1991336 0.26092085 0.80500007 4293455837
-0.19739923 0.26059672 0.80400002 4293587423
-0.19591223 0.26059672 0.80400002 4293521630
-0.19442523 0.26059672 0.80400002 4293521630
-0.19269826 0.26027259 0.80300003 4293586653
-0.19145122 0.26059672 0.80400002 4293718239
-0.18972795 0.26027259 0.80300003 4293718239
-0.18824281 0.26027259 0.80300003 4293653216
-0.18652508 0.25994846 0.80200005 4293521632
-0.18504177 0.25994846 0.80200005 4293587425
-0.1833296 0.25962433 0.80100006 4293719524
-0.18207517 0.25994846 0.80200005 4293587938
-0.18104222 0.26059672 0.80400002 4293587425
-0.17977856 0.26092085 0.80500007 4293653218
-0.17828971 0.26092085 0.80500007 4293653216
-0.17658123 0.26059672 0.80400002 4293915620
-0.17487645 0.26027259 0.80300003 4293915620
-0.17317536 0.25994846 0.80200005 4293915620
-0.17147799 0.25962433 0.80100006 4293784032
-0.16999654 0.25962433 0.80100006 4293784032
-0.16851509 0.25962433 0.80100006 4293849827
-0.1668251 0.25930023 0.80000001 4293719011
-0.1653455 0.25930023 0.80000001 4293850595
-0.16386589 0.25930023 0.80000001 4293653216
-0.16258928 0.25962433 0.80100006 4293653216
-0.16130896 0.25994846 0.80200005 4293653216
-0.16002494 0.26027259 0.80300003 4293653216
-0.15873723 0.26059672 0.80400002 4293719011
-0.15725023 0.26059672 0.80400002 4293522145
-0.15576324 0.26059672 0.80400002 4293456352
-0.15446812 0.26092085 0.80500007 4293587938
-0.15297927 0.26092085 0.80500007 4293587425
-0.15130223 0.26059672 0.80400002 4293719011
-0.14981523 0.26059672 0.80400002 4293653216
-0.14814374 0.26027259 0.80300003 4293587423
-0.1466586 0.26027259 0.80300003 4293586653
-0.14517345 0.26027259 0.80300003 4293652446
-0.14350936 0.25994846 0.80200005 4293652446
-0.14202605 0.25994846 0.80200005 4293718239
-0.14054275 0.25994846 0.80200005 4293586655
-0.13923284 0.26027259 0.80300003 4293718241
-0.13791923 0.26059672 0.80400002 4293587425
-0.13643223 0.26059672 0.80400002 4293455584
-0.13511308 0.26092085 0.80500007 4293455584
-0.13362423 0.26092085 0.80500007 4293587170
-0.13213538 0.26092085 0.80500007 4293718756
-0.13064653 0.26092085 0.80500007 4293455839
-0.12899724 0.26059672 0.80400002 4293719011
-0.12751023 0.26059672 0.80400002 4293850342
-0.12586649 0.26027259 0.80300003 4293718756
-0.12422644 0.25994846 0.80200005 4293718756
-0.12274314 0.25994846 0.80200005 4293652963
-0.12125984 0.25994846 0.80200005 4293784804
-0.11992589 0.26027259 0.80300003 4293915620
-0.11844074 0.26027259 0.80300003 4294047207
-0.11695559 0.26027259 0.80300003 4293981414
-0.11547044 0.26027259 0.80300003 4294113000
-0.11398529 0.26027259 0.80300003 4293981414
-0.11264024 0.26059672 0.80400002 4293981928
-0.11129149 0.26092085 0.80500007 4293850342
-0.10980264 0.26092085 0.80500007 4293850597
-0.10831379 0.26092085 0.80500007 4293916390
-0.10682494 0.26092085 0.80500007 4293916390
-0.10520524 0.26059672 0.80400002 4293850342
-0.10371824 0.26059672 0.80400002 4293850342
-0.10235839 0.26092085 0.80500007 4293850342
-0.10086954 0.26092085 0.80500007 4293718758
-0.099380694 0.26092085 0.80500007 4293718758
-0.097891845 0.26092085 0.80500007 4293850344
-0.096402995 0.26092085 0.80500007 4293981160
-0.094914146 0.26092085 0.80500007 4293850342
-0.093425296 0.26092085 0.80500007 4293850342
-0.091822237 0.26059672 0.80400002 4294047206
-0.090335242 0.26059672 0.80400002 4294047206
-0.088848241 0.26059672 0.80400002 4293915620
-0.087361239 0.26059672 0.80400002 4293915620
-0.085981049 0.26092085 0.80500007 4293915620
-0.084597155 0.26124498 0.80600005 4294047207
-0.083106458 0.26124498 0.80600005 4293850344
-0.081615761 0.26124498 0.80600005 4293981930
-0.080125064 0.26124498 0.80600005 4293850344
-0.078536801 0.26092085 0.80500007 4293916137
-0.077047952 0.26092085 0.80500007 4294047721
-0.075559102 0.26092085 0.80500007 4293981928
-0.074070252 0.26092085 0.80500007 4293981928
-0.072581403 0.26092085 0.80500007 4294047721
-0.071004242 0.26059672 0.80400002 4293916135
-0.069430776 0.26027259 0.80300003 4294244586
-0.067945629 0.26027259 0.80300003 4294047207
-0.066460475 0.26027259 0.80300003 4294047207
-0.065056242 0.26059672 0.80400002 4294047207
-0.063648306 0.26092085 0.80500007 4293981930
-0.062236678 0.26124498 0.80600005 4293916137
-0.060821343 0.26156908 0.80700004 4293981930
-0.059328794 0.26156908 0.80700004 4293850857
-0.057836249 0.26156908 0.80700004 4293850857
-0.056343701 0.26156908 0.80700004 4293785064
-0.054851152 0.26156908 0.80700004 4293982443
-0.053358603 0.26156908 0.80700004 4293982443
-0.051866055 0.26156908 0.80700004 4293916650
-0.050248664 0.26092085 0.80500007 4293981930
-0.048759814 0.26092085 0.80500007 4293981928
-0.047270965 0.26092085 0.80500007 4294113516
-0.045782115 0.26092085 0.80500007 4294047721
-0.044293266 0.26092085 0.80500007 4293981928
-0.042804416 0.26092085 0.80500007 4293982183
-0.04131557 0.26092085 0.80500007 4293982183
-0.039876193 0.26124498 0.80600005 4294047206
-0.038385496 0.26124498 0.80600005 4293981413
-0.036894795 0.26124498 0.80600005 4293981413
-0.035404097 0.26124498 0.80600005 4294112997
-0.033871323 0.26092085 0.80500007 4294178790
-0.032342248 0.26059672 0.80400002 4294047204
-0.030855246 0.26059672 0.80400002 4294112997
-0.029404774 0.26092085 0.80500007 4293916388
-0.027915925 0.26092085 0.80500007 4293916390
-0.026427075 0.26092085 0.80500007 4293982183
-0.024938226 0.26092085 0.80500007 4293916390
-0.023449376 0.26092085 0.80500007 4293981928
-0.021960527 0.26092085 0.80500007 4294179307
-0.020471679 0.26092085 0.80500007 4294113516
-0.01898283 0.26092085 0.80500007 4294178539
-0.01749398 0.26092085 0.80500007 4294244332
-0.01600513 0.26092085 0.80500007 4294244334
-0.014516281 0.26092085 0.80500007 4294244334
-0.013011249 0.26059672 0.80400002 4294047725
-0.011524249 0.26059672 0.80400002 4293981932
-0.010049733 0.26092085 0.80500007 4294047723
-0.0085608838 0.26092085 0.80500007 4294047723
-0.0070632491 0.26059672 0.80400002 4293916135
-0.0055762492 0.26059672 0.80400002 4293850342
-0.0040892493 0.26059672 0.80400002 4293981928
-0.0026022496 0.26059672 0.80400002 4294113000
-0.001116637 0.26092085 0.80500007 4294113000
0.00037267469 0.26124498 0.80600005 4294112999
0.0018656855 0.26156908 0.80700004 4294047206
0.0033582337 0.26156908 0.80700004 4293915620
0.0048387605 0.26092085 0.80500007 4293718756
0.0063276095 0.26092085 0.80500007 4293981414
0.0078067491 0.26059672 0.80400002 4294047207
0.0093053086 0.26092085 0.80500007 4294244586
0.010794157 0.26092085 0.80500007 4294244586
0.012298265 0.26124498 0.80600005 4294310379
0.013771856 0.26092085 0.80500007 4294178793
0.015260706 0.26092085 0.80500007 4294113000
0.016770361 0.26124498 0.80600005 4294178793
0.018283717 0.26156908 0.80700004 4294047207
0.019776266 0.26156908 0.80700004 4294178793
0.021242458 0.26124498 0.80600005 4293981414
0.022704951 0.26092085 0.80500007 4294112999
0.024193801 0.26092085 0.80500007 4294112486
0.025682651 0.26092085 0.80500007 4294244072
0.0271715 0.26092085 0.80500007 4294244072
0.028695952 0.26124498 0.80600005 4294178792
0.030224103 0.26156908 0.80700004 4294112999
0.031795256 0.26221734 0.80900002 4294112999
0.033291504 0.26221734 0.80900002 4294178792
0.034787752 0.26221734 0.80900002 4294376171
0.036239147 0.26189321 0.80800003 4294178792
0.037640147 0.26124498 0.80600005 4294244585
0.039130844 0.26124498 0.80600005 4294244585
0.040571146 0.26092085 0.80500007 4294112999
0.042059995 0.26092085 0.80500007 4294178792
0.043548841 0.26092085 0.80500007 4294112999
0.044981744 0.26059672 0.80400002 4294047976
0.046468746 0.26059672 0.80400002 4294113769
0.04801539 0.26092085 0.80500007 4294311148
0.049565736 0.26124498 0.80600005 4294113769
0.051119782 0.26156908 0.80700004 4294244585
0.052612327 0.26156908 0.80700004 4294310378
0.054104876 0.26156908 0.80700004 4294244585
0.055528533 0.26124498 0.80600005 4294310378
0.05701923 0.26124498 0.80600005 4294441962
0.058509927 0.26124498 0.80600005 4294244583
0.060000628 0.26124498 0.80600005 4294376169
0.061491325 0.26124498 0.80600005 4294507755
0.063060164 0.26156908 0.80700004 4294507755
0.064552717 0.26156908 0.80700004 4294573548
0.065963425 0.26124498 0.80600005 4294441962
0.067454122 0.26124498 0.80600005 4294573548
0.068944819 0.26124498 0.80600005 4294573548
0.070435517 0.26124498 0.80600005 4294507498
0.071926221 0.26124498 0.80600005 4294376169
0.073325828 0.26092085 0.80500007 4294441962
0.074721739 0.26059672 0.80400002 4294507755
0.07620874 0.26059672 0.80400002 4294507755
0.077792376 0.26092085 0.80500007 4294573548
0.079379715 0.26124498 0.80600005 4294639084
0.080870412 0.26124498 0.80600005 4294704877
0.082258925 0.26092085 0.80500007 4294704877
0.083643742 0.26059672 0.80400002 4294704877
0.085130736 0.26059672 0.80400002 4294639341
0.086725473 0.26092085 0.80500007 4294508009
0.088323906 0.26124498 0.80600005 4294377193
0.089814603 0.26124498 0.80600005 4294442986
0.091305301 0.26124498 0.80600005 4294377193
0.092680871 0.26092085 0.80500007 4294442986
0.094169721 0.26092085 0.80500007 4294442986
0.095539741 0.26059672 0.80400002 4294639595
0.097026736 0.26059672 0.80400002 4294573548
0.098513737 0.26059672 0.80400002 4294442732
0.10012512 0.26092085 0.80500007 4294442732
0.1017402 0.26124498 0.80600005 4294573548
0.10310282 0.26092085 0.80500007 4294507755
0.10472159 0.26124498 0.80600005 4294507755
0.10621229 0.26124498 0.80600005 4294507755
0.10770299 0.26124498 0.80600005 4294311148
0.10919369 0.26124498 0.80600005 4294311148
0.11068439 0.26124498 0.80600005 4294376941
0.11231426 0.26156908 0.80700004 4294245355
0.11380681 0.26156908 0.80700004 4294179562
0.1155851 0.26221734 0.80900002 4294508528
0.11722608 0.26254147 0.81000006 4294574066
0.1185776 0.26221734 0.80900002 4279640337
0.11992542 0.26189321 0.80800003 4280627491
0.12141982 0.26189321 0.80800003 4279970076
0.1227621 0.26156908 0.80700004 4279706650
0.12425465 0.26156908 0.80700004 4279707420
0.12590301 0.26189321 0.80800003 4279773213
0.12739742 0.26189321 0.80800003 4280102178
0.12889181 0.26189321 0.80800003 4280431143
0.13054758 0.26221734 0.80900002 4280825901
0.13220705 0.26254147 0.81000006 4280891694
0.13436541 0.26383796 0.81400001 4281680440
0.13653858 0.26513448 0.81800002 4281483061
-0.30518913 0.26143178 0.80200005 4293126872
-0.30294847 0.26077983 0.80000001 4293061079
-0.30109203 0.26045385 0.79900002 4293061081
-0.29961428 0.26045385 0.79900002 4293126874
-0.29850966 0.26077983 0.80000001 4293126874
-0.29740134 0.26110581 0.80100006 4293192667
-0.2959199 0.26110581 0.80100006 4293390046
-0.29443845 0.26110581 0.80100006 4293126874
-0.29295701 0.26110581 0.80100006 4293323483
-0.29111165 0.26077983 0.80000001 4293455069
-0.28927001 0.26045385 0.79900002 4293520349
-0.28779227 0.26045385 0.79900002 4293520603
-0.28631452 0.26045385 0.79900002 4293586396
-0.28483677 0.26045385 0.79900002 4293520603
-0.28371364 0.26077983 0.80000001 4293520603
-0.28223404 0.26077983 0.80000001 4293454810
-0.28075445 0.26077983 0.80000001 4293520860
-0.27927485 0.26077983 0.80000001 4293586655
-0.27779526 0.26077983 0.80000001 4293390046
-0.27631563 0.26077983 0.80000001 4293390559
-0.2744925 0.26045385 0.79900002 4293456352
-0.27301475 0.26045385 0.79900002 4293390304
-0.27153698 0.26045385 0.79900002 4293390304
-0.27039725 0.26077983 0.80000001 4293521890
-0.26925379 0.26110581 0.80100006 4293521377
-0.26777232 0.26110581 0.80100006 4293587425
-0.26629087 0.26110581 0.80100006 4293652448
-0.26447883 0.26077983 0.80000001 4293586653
-0.26299924 0.26077983 0.80000001 4293718239
-0.26151961 0.26077983 0.80000001 4293652446
-0.26004001 0.26077983 0.80000001 4293586653
-0.25856042 0.26077983 0.80000001 4293586653
-0.25708082 0.26077983 0.80000001 4293587423
-0.25560123 0.26077983 0.80000001 4293587423
-0.2541216 0.26077983 0.80000001 4293521630
-0.25264201 0.26077983 0.80000001 4293719009
-0.25084844 0.26045385 0.79900002 4293521630
-0.2496828 0.26077983 0.80000001 4293455837
-0.24851346 0.26110581 0.80100006 4293587423
-0.24734041 0.26143178 0.80200005 4293719009
-0.2458571 0.26143178 0.80200005 4293719009
-0.2437644 0.26077983 0.80000001 4293850595
-0.2422848 0.26077983 0.80000001 4293719009
-0.24050419 0.26045385 0.79900002 4293719009
-0.2393256 0.26077983 0.80000001 4293653218
-0.23784599 0.26077983 0.80000001 4293719011
-0.23666185 0.26110581 0.80100006 4293719011
-0.23547401 0.26143178 0.80200005 4293719011
-0.2339907 0.26143178 0.80200005 4293521632
-0.23250741 0.26143178 0.80200005 4293587425
-0.2310241 0.26143178 0.80200005 4293455839
-0.2295408 0.26143178 0.80200005 4293719009
-0.22777314 0.26110581 0.80100006 4293849825
-0.22600918 0.26077983 0.80000001 4293849825
-0.22452958 0.26077983 0.80000001 4293719009
-0.22304997 0.26077983 0.80000001 4293587423
-0.22184734 0.26110581 0.80100006 4293719009
-0.220641 0.26143178 0.80200005 4293587423
-0.21888444 0.26110581 0.80100006 4293521630
-0.21740298 0.26110581 0.80100006 4293719009
-0.21592154 0.26110581 0.80100006 4293653216
-0.21470779 0.26143178 0.80200005 4293521630
-0.21322449 0.26143178 0.80200005 4293653216
-0.21174119 0.26143178 0.80200005 4293719009
-0.21025789 0.26143178 0.80200005 4293784802
-0.2087746 0.26143178 0.80200005 4293653216
-0.20729129 0.26143178 0.80200005 4293719009
-0.20555137 0.26110581 0.80100006 4293784802
-0.20406991 0.26110581 0.80100006 4293719009
-0.20258847 0.26110581 0.80100006 4293653218
-0.20110701 0.26110581 0.80100006 4293587425
-0.19962557 0.26110581 0.80100006 4293587425
-0.19839148 0.26143178 0.80200005 4293718241
-0.19690819 0.26143178 0.80200005 4293586653
-0.19542488 0.26143178 0.80200005 4293652446
-0.19394158 0.26143178 0.80200005 4293784032
-0.19245829 0.26143178 0.80200005 4293849825
-0.1912131 0.26175773 0.80300003 4293587423
-0.18972795 0.26175773 0.80300003 4293849825
-0.18800838 0.26143178 0.80200005 4293915620
-0.18652508 0.26143178 0.80200005 4293719011
-0.18481106 0.26110581 0.80100006 4293785317
-0.1833296 0.26110581 0.80100006 4293522145
-0.18207517 0.26143178 0.80200005 4293719269
-0.18081705 0.26175773 0.80300003 4293719269
-0.1793319 0.26175773 0.80300003 4293653731
-0.17784674 0.26175773 0.80300003 4293784804
-0.17614198 0.26143178 0.80200005 4293784804
-0.17465867 0.26143178 0.80200005 4294113000
-0.17295945 0.26110581 0.80100006 4293915620
-0.1712639 0.26077983 0.80000001 4293718241
-0.16957209 0.26045385 0.79900002 4293784034
-0.16830471 0.26077983 0.80000001 4293784034
-0.1668251 0.26077983 0.80000001 4293719011
-0.1653455 0.26077983 0.80000001 4293784804
-0.16386589 0.26077983 0.80000001 4293587425
-0.1623863 0.26077983 0.80000001 4293587425
-0.16110784 0.26110581 0.80100006 4293587938
-0.15982567 0.26143178 0.80200005 4293653731
-0.1585398 0.26175773 0.80300003 4293522145
-0.15705465 0.26175773 0.80300003 4293587938
-0.15556949 0.26175773 0.80300003 4293522145
-0.15408434 0.26175773 0.80300003 4293456097
-0.1525992 0.26175773 0.80300003 4293522145
-0.15111405 0.26175773 0.80300003 4293653218
-0.14944255 0.26143178 0.80200005 4293653218
-0.14777477 0.26110581 0.80100006 4293521630
-0.14629331 0.26110581 0.80100006 4293521630
-0.14463107 0.26077983 0.80000001 4293587423
-0.14315148 0.26077983 0.80000001 4293653216
-0.14167188 0.26077983 0.80000001 4293653218
-0.14019227 0.26077983 0.80000001 4293653218
-0.13888606 0.26110581 0.80100006 4293784804
-0.13757615 0.26143178 0.80200005 4293916135
-0.13609286 0.26143178 0.80200005 4293784549
-0.1347774 0.26175773 0.80300003 4293916135
-0.13329224 0.26175773 0.80300003 4293652963
-0.13180709 0.26175773 0.80300003 4293718756
-0.13015965 0.26143178 0.80200005 4293718756
-0.12867634 0.26143178 0.80200005 4293587170
-0.12719305 0.26143178 0.80200005 4293718756
-0.12570974 0.26143178 0.80200005 4293784549
-0.12407155 0.26110581 0.80100006 4293652963
-0.12259009 0.26110581 0.80100006 4293587170
-0.12125984 0.26143178 0.80200005 4293521377
-0.11977654 0.26143178 0.80200005 4293587170
-0.11829324 0.26143178 0.80200005 4293718756
-0.11680994 0.26143178 0.80200005 4293718756
-0.11532664 0.26143178 0.80200005 4293784549
-0.11384334 0.26143178 0.80200005 4293784549
-0.11236004 0.26143178 0.80200005 4293718756
-0.11101498 0.26175773 0.80300003 4293652963
-0.10952984 0.26175773 0.80300003 4293784549
-0.10804468 0.26175773 0.80300003 4293850597
-0.10655954 0.26175773 0.80300003 4293850597
-0.10507438 0.26175773 0.80300003 4293785062
-0.10358924 0.26175773 0.80300003 4293785062
-0.10210408 0.26175773 0.80300003 4293785062
-0.10061894 0.26175773 0.80300003 4293850342
-0.099133782 0.26175773 0.80300003 4293718756
-0.097648636 0.26175773 0.80300003 4293784549
-0.096163481 0.26175773 0.80300003 4293850342
-0.094678335 0.26175773 0.80300003 4293850342
-0.093193181 0.26175773 0.80300003 4293916135
-0.091593824 0.26143178 0.80200005 4294047206
-0.090110525 0.26143178 0.80200005 4293981413
-0.088627227 0.26143178 0.80200005 4293981413
-0.08714392 0.26143178 0.80200005 4293849827
-0.085660622 0.26143178 0.80200005 4293915620
-0.084282279 0.26175773 0.80300003 4293981414
-0.082900241 0.26208371 0.80400002 4293718756
-0.081413239 0.26208371 0.80400002 4293784549
-0.079926237 0.26208371 0.80400002 4293718756
-0.078439243 0.26208371 0.80400002 4293784549
-0.076952241 0.26208371 0.80400002 4293784549
-0.07546524 0.26208371 0.80400002 4293784549
-0.073978238 0.26208371 0.80400002 4293784549
-0.072491243 0.26208371 0.80400002 4293916135
-0.071004242 0.26208371 0.80400002 4293850597
-0.069430776 0.26175773 0.80300003 4293916390
-0.067861013 0.26143178 0.80200005 4294047976
-0.066377714 0.26143178 0.80200005 4293916390
-0.064894408 0.26143178 0.80200005 4294047206
-0.063490175 0.26175773 0.80300003 4293916135
-0.062082242 0.26208371 0.80400002 4293916135
-0.060670611 0.26240969 0.80500007 4293981928
-0.05925528 0.26273566 0.80600005 4293981930
-0.057692911 0.26240969 0.80500007 4293916137
-0.056204062 0.26240969 0.80500007 4293850344
-0.054715212 0.26240969 0.80500007 4293784551
-0.053226363 0.26240969 0.80500007 4293784549
-0.051737513 0.26240969 0.80500007 4293850342
-0.050248664 0.26240969 0.80500007 4293850342
-0.048759814 0.26240969 0.80500007 4293916135
-0.047212243 0.26208371 0.80400002 4294113000
-0.045668371 0.26175773 0.80300003 4294112999
-0.044183221 0.26175773 0.80300003 4293981413
-0.04269807 0.26175773 0.80300003 4294047204
-0.041161597 0.26143178 0.80200005 4293981411
-0.03972777 0.26175773 0.80300003 4293981411
-0.038242619 0.26175773 0.80300003 4293915618
-0.036757469 0.26175773 0.80300003 4293981411
-0.035272319 0.26175773 0.80300003 4293915872
-0.033787169 0.26175773 0.80300003 4293915872
-0.032261793 0.26143178 0.80200005 4294179044
-0.030778492 0.26143178 0.80200005 4294047204
-0.029295191 0.26143178 0.80200005 4293982181
-0.02781189 0.26143178 0.80200005 4293982181
-0.026361419 0.26175773 0.80300003 4293850597
-0.024876269 0.26175773 0.80300003 4293719011
-0.023391118 0.26175773 0.80300003 4294113769
-0.021905968 0.26175773 0.80300003 4294179562
-0.020420818 0.26175773 0.80300003 4294376171
-0.018935667 0.26175773 0.80300003 4294376171
-0.017472249 0.26208371 0.80400002 4294376171
-0.015985249 0.26208371 0.80400002 4294573551
-0.014498249 0.26208371 0.80400002 4294573551
-0.012995065 0.26175773 0.80300003 4294441965
-0.011509915 0.26175773 0.80300003 4294376686
-0.01001228 0.26143178 0.80200005 4294442479
-0.0085289795 0.26143178 0.80200005 4294442734
-0.0070456788 0.26143178 0.80200005 4294376941
-0.0055623781 0.26143178 0.80200005 4294442734
-0.0040790774 0.26143178 0.80200005 4294573548
-0.0025957765 0.26143178 0.80200005 4294705134
-0.0011138627 0.26175773 0.80300003 4294573548
0.00037221232 0.26240969 0.80500007 4294573548
0.0018610617 0.26240969 0.80500007 4294639341
0.003349911 0.26240969 0.80500007 4294639343
0.0048327493 0.26208371 0.80400002 4294705136
0.0063197492 0.26208371 0.80400002 4294639343
0.0077970391 0.26175773 0.80300003 4294705136
0.0092821894 0.26175773 0.80300003 4294901746
0.01076734 0.26175773 0.80300003 4294836209
0.012267749 0.26208371 0.80400002 4294770671
0.013754749 0.26208371 0.80400002 4294770671
0.015241749 0.26208371 0.80400002 4294770673
0.016728748 0.26208371 0.80400002 4294836208
0.018215748 0.26208371 0.80400002 4294836208
0.019702747 0.26208371 0.80400002 4294770670
0.021163393 0.26175773 0.80300003 4294901744
0.022648543 0.26175773 0.80300003 4294836207
0.024103638 0.26143178 0.80200005 4294901743
0.025618844 0.26175773 0.80300003 4294967278
0.027137747 0.26208371 0.80400002 4294901742
0.02866035 0.26240969 0.80500007 4294901742
0.030149199 0.26240969 0.80500007 4294901742
0.03167735 0.26273566 0.80600005 4294901742
0.033168048 0.26273566 0.80600005 4294836206
0.034658749 0.26273566 0.80600005 4294770669
0.036149446 0.26273566 0.80600005 4294770669
0.037593447 0.26240969 0.80500007 4294705132
0.039033744 0.26208371 0.80400002 4294705134
0.040470347 0.26175773 0.80300003 4294639341
0.04190325 0.26143178 0.80200005 4294770671
0.043386549 0.26143178 0.80200005 4294639341
0.044869851 0.26143178 0.80200005 4294442732
0.046410948 0.26175773 0.80300003 4294574062
0.047896098 0.26175773 0.80300003 4294770673
0.049442746 0.26208371 0.80400002 4294705136
0.050993089 0.26240969 0.80500007 4294705136
0.052547134 0.26273566 0.80600005 4294836208
0.054037832 0.26273566 0.80600005 4294770669
0.055528533 0.26273566 0.80600005 4294836206
0.05701923 0.26273566 0.80600005 4294770669
0.058437336 0.26240969 0.80500007 4294901741
0.059926186 0.26240969 0.80500007 4294704875
0.061415035 0.26240969 0.80500007 4294705130
0.062903881 0.26240969 0.80500007 4294901741
0.064392731 0.26240969 0.80500007 4294639593
0.065799743 0.26208371 0.80400002 4294573800
0.067286745 0.26208371 0.80400002 4294507494
0.068773739 0.26208371 0.80400002 4294573287
0.070173353 0.26175773 0.80300003 4294507496
0.0716585 0.26175773 0.80300003 4294179042
0.073143654 0.26175773 0.80300003 4294047456
0.074721739 0.26208371 0.80400002 4294112736
0.07620874 0.26208371 0.80400002 4294046945
0.077695742 0.26208371 0.80400002 4293981152
0.079182744 0.26208371 0.80400002 4293981152
0.080669738 0.26208371 0.80400002 4293717978
0.082054555 0.26175773 0.80300003 4293717978
0.08343567 0.26143178 0.80200005 4293652187
0.085024856 0.26175773 0.80300003 4293717980
0.086510003 0.26175773 0.80300003 4293521114
0.08810474 0.26208371 0.80400002 4293323735
0.089591742 0.26208371 0.80400002 4293192149
0.091078736 0.26208371 0.80400002 4292929747
0.092450604 0.26175773 0.80300003 4293060563
0.093935758 0.26175773 0.80300003 4293060563
0.095302075 0.26143178 0.80200005 4292796878
0.096906058 0.26175773 0.80300003 4292863184
0.098513737 0.26208371 0.80400002 4292600012
0.10000074 0.26208371 0.80400002 4292336840
0.10148774 0.26208371 0.80400002 4292402633
0.10297474 0.26208371 0.80400002 4292205254
0.10433181 0.26175773 0.80300003 4291744703
0.10581696 0.26175773 0.80300003 4292139461
0.10730211 0.26175773 0.80300003 4292073414
0.10878726 0.26175773 0.80300003 4291942082
0.11040974 0.26208371 0.80400002 4291613887
0.11189674 0.26208371 0.80400002 4291745473
0.11338374 0.26208371 0.80400002 4291942598
0.11515649 0.26273566 0.80600005 4292798420
0.1167919 0.26306164 0.80700004 4291943627
0.11828446 0.26306164 0.80700004 4280429852
0.119777 0.26306164 0.80700004 4280495905
0.12126955 0.26306164 0.80700004 4279903770
0.12260998 0.26273566 0.80600005 4279509271
0.12425465 0.26306164 0.80700004 4279838236
0.1257472 0.26306164 0.80700004 4280101408
0.12723975 0.26306164 0.80700004 4280430373
0.12873229 0.26306164 0.80700004 4280890924
0.1303862 0.26338762 0.80800003 4280890924
0.13188061 0.26338762 0.80800003 4280891694
0.13387021 0.26436555 0.81100005 4281811769
0.13603783 0.26566944 0.81500006 4281548854
-0.3055253 0.2619316 0.79900002 4293587423
-0.30366701 0.26160377 0.79800004 4293324253
-0.30219111 0.26160377 0.79800004 4293390046
-0.30033836 0.26127595 0.79700005 4293258460
-0.29923931 0.26160377 0.79800004 4293390046
-0.29776338 0.26160377 0.79800004 4293653218
-0.29665878 0.2619316 0.79900002 4293587425
-0.29518104 0.2619316 0.79900002 4293719011
-0.29370326 0.2619316 0.79900002 4293653218
-0.29222551 0.2619316 0.79900002 4293784804
-0.29038388 0.26160377 0.79800004 4293849827
-0.2881839 0.26094812 0.79600006 4293784034
-0.28671169 0.26094812 0.79600006 4293718241
-0.28523949 0.26094812 0.79600006 4293915620
-0.28376728 0.26094812 0.79600006 4293849827
-0.28264973 0.26127595 0.79700005 4293849827
-0.28117567 0.26127595 0.79700005 4293652448
-0.27970162 0.26127595 0.79700005 4293718241
-0.27822757 0.26127595 0.79700005 4293719011
-0.27675352 0.26127595 0.79700005 4293850597
-0.27527946 0.26127595 0.79700005 4293719269
-0.27346185 0.26094812 0.79600006 4293719269
-0.27198964 0.26094812 0.79600006 4293719269
-0.2708573 0.26127595 0.79700005 4293719269
-0.26938325 0.26127595 0.79700005 4293719269
-0.26858148 0.2619316 0.79900002 4293653218
-0.26710373 0.2619316 0.79900002 4293653218
-0.26562598 0.2619316 0.79900002 4293784034
-0.26414824 0.2619316 0.79900002 4293915618
-0.26267049 0.2619316 0.79900002 4293915618
-0.26119271 0.2619316 0.79900002 4293784032
-0.25971496 0.2619316 0.79900002 4293849825
-0.25823721 0.2619316 0.79900002 4293981411
-0.25643811 0.26160377 0.79800004 4293653216
-0.25496221 0.26160377 0.79800004 4293653218
-0.25348631 0.26160377 0.79800004 4293456352
-0.25169459 0.26127595 0.79700005 4293587938
-0.25022054 0.26127595 0.79700005 4293719524
-0.2490586 0.26160377 0.79800004 4293587425
-0.2475827 0.26160377 0.79800004 4293521630
-0.2464152 0.2619316 0.79900002 4293719009
-0.24493745 0.2619316 0.79900002 4293719009
-0.24285029 0.26127595 0.79700005 4293916388
-0.24137624 0.26127595 0.79700005 4293784804
-0.23990217 0.26127595 0.79700005 4293653218
-0.23872729 0.26160377 0.79800004 4293652963
-0.23725137 0.26160377 0.79800004 4293652963
-0.23607093 0.2619316 0.79900002 4293652963
-0.23459318 0.2619316 0.79900002 4293784549
-0.23311543 0.2619316 0.79900002 4293652963
-0.23163767 0.2619316 0.79900002 4293784549
-0.23015992 0.2619316 0.79900002 4293784804
-0.22868218 0.2619316 0.79900002 4293784804
-0.22720441 0.2619316 0.79900002 4293653216
-0.22544415 0.26160377 0.79800004 4293653216
-0.22424892 0.2619316 0.79900002 4293587934
-0.22277117 0.2619316 0.79900002 4293719522
-0.22157037 0.26225942 0.80000001 4293653729
-0.22009078 0.26225942 0.80000001 4293719524
-0.21861117 0.26225942 0.80000001 4293653731
-0.21686015 0.2619316 0.79900002 4293719524
-0.21565196 0.26225942 0.80000001 4293719524
-0.21417236 0.26225942 0.80000001 4293851110
-0.21269277 0.26225942 0.80000001 4294047974
-0.21147718 0.26258725 0.80100006 4293916388
-0.20999572 0.26258725 0.80100006 4293916388
-0.20851427 0.26258725 0.80100006 4293784802
-0.20703281 0.26258725 0.80100006 4293784802
-0.20529476 0.26225942 0.80000001 4293719011
-0.20381515 0.26225942 0.80000001 4293850597
-0.20208263 0.2619316 0.79900002 4293981413
-0.2003538 0.26160377 0.79800004 4293850597
-0.1988779 0.26160377 0.79800004 4293784804
-0.19764937 0.2619316 0.79900002 4293849827
-0.19617163 0.2619316 0.79900002 4294047206
-0.19493754 0.26225942 0.80000001 4294112999
-0.19345793 0.26225942 0.80000001 4293981411
-0.1922183 0.26258725 0.80100006 4293915618
-0.19073686 0.26258725 0.80100006 4294178790
-0.1892554 0.26258725 0.80100006 4293981411
-0.18777396 0.26258725 0.80100006 4294047204
-0.18605992 0.26225942 0.80000001 4293982181
-0.18458033 0.26225942 0.80000001 4293982696
-0.18310073 0.26225942 0.80000001 4293719524
-0.18162112 0.26225942 0.80000001 4293719524
-0.18014152 0.26225942 0.80000001 4293851110
-0.17888525 0.26258725 0.80100006 4293785317
-0.17718232 0.26225942 0.80000001 4293851110
-0.17570272 0.26225942 0.80000001 4293916135
-0.17422311 0.26225942 0.80000001 4293850342
-0.17252758 0.2619316 0.79900002 4293916135
-0.17083575 0.26160377 0.79800004 4293784804
-0.16935985 0.26160377 0.79800004 4293850597
-0.16788395 0.26160377 0.79800004 4293982183
-0.16661657 0.2619316 0.79900002 4293916390
-0.16513883 0.2619316 0.79900002 4294047976
-0.16386589 0.26225942 0.80000001 4293850597
-0.16218331 0.2619316 0.79900002 4293719524
-0.1609067 0.26225942 0.80000001 4293851110
-0.15942709 0.26225942 0.80000001 4293785317
-0.15814492 0.26258725 0.80100006 4293719524
-0.15646788 0.26225942 0.80000001 4293785317
-0.15498829 0.26225942 0.80000001 4293719524
-0.15350869 0.26225942 0.80000001 4293719524
-0.15202908 0.26225942 0.80000001 4293784804
-0.15054949 0.26225942 0.80000001 4293784802
-0.14888355 0.2619316 0.79900002 4293916388
-0.14722131 0.26160377 0.79800004 4293916388
-0.1457454 0.26160377 0.79800004 4293719009
-0.1442695 0.26160377 0.79800004 4293653216
-0.1427936 0.26160377 0.79800004 4293719009
-0.1413177 0.26160377 0.79800004 4293719011
-0.13984179 0.26160377 0.79800004 4293719011
-0.13836589 0.26160377 0.79800004 4293784804
-0.13723306 0.26225942 0.80000001 4293850597
-0.13575347 0.26225942 0.80000001 4293982183
-0.1344417 0.26258725 0.80100006 4293916390
-0.13296026 0.26258725 0.80100006 4293916390
-0.1314788 0.26258725 0.80100006 4293916903
-0.12983505 0.26225942 0.80000001 4293916903
-0.1285159 0.26258725 0.80100006 4293719524
-0.12687586 0.26225942 0.80000001 4293785317
-0.12539625 0.26225942 0.80000001 4293916390
-0.12391665 0.26225942 0.80000001 4293981928
-0.12243705 0.26225942 0.80000001 4293981928
-0.12095745 0.26225942 0.80000001 4293981414
-0.11962719 0.26258725 0.80100006 4293981414
-0.11814574 0.26258725 0.80100006 4293915620
-0.11666429 0.26258725 0.80100006 4294112999
-0.11518284 0.26258725 0.80100006 4294047976
-0.11370139 0.26258725 0.80100006 4293916390
-0.11207984 0.26225942 0.80000001 4293916390
-0.11060023 0.26225942 0.80000001 4293916390
-0.10912064 0.26225942 0.80000001 4293916390
-0.10764103 0.26225942 0.80000001 4294113769
-0.10616143 0.26225942 0.80000001 4293982183
-0.10481268 0.26258725 0.80100006 4294047976
-0.10333123 0.26258725 0.80100006 4293916390
-0.10184978 0.26258725 0.80100006 4293916390
-0.10036833 0.26258725 0.80100006 4293916390
-0.098886877 0.26258725 0.80100006 4293916390
-0.097405426 0.26258725 0.80100006 4294047976
-0.095923975 0.26258725 0.80100006 4293982183
-0.094442524 0.26258725 0.80100006 4294113767
-0.092961073 0.26258725 0.80100006 4294310376
-0.091479622 0.26258725 0.80100006 4294112997
-0.089998171 0.26258725 0.80100006 4294178533
-0.08851672 0.26258725 0.80100006 4294178533
-0.087035269 0.26258725 0.80100006 4294375912
-0.08555381 0.26258725 0.80100006 4294310119
-0.084177323 0.26291507 0.80200005 4294244072
-0.082694024 0.26291507 0.80200005 4294244585
-0.081210718 0.26291507 0.80200005 4294244585
-0.079727419 0.26291507 0.80200005 4294178790
-0.07824412 0.26291507 0.80200005 4294245353
-0.076760821 0.26291507 0.80200005 4294311146
-0.075371377 0.2632429 0.80300003 4294179560
-0.073886231 0.2632429 0.80300003 4294311146
-0.072401077 0.2632429 0.80300003 4294311146
-0.07091593 0.2632429 0.80300003 4294573548
-0.069430776 0.2632429 0.80300003 4294507755
-0.067861013 0.26291507 0.80200005 4294508009
-0.066294946 0.26258725 0.80100006 4294442216
-0.064732581 0.26225942 0.80000001 4294573548
-0.063332044 0.26258725 0.80100006 4294639341
-0.06192781 0.26291507 0.80200005 4294639343
-0.060519874 0.2632429 0.80300003 4294770673
-0.059108242 0.26357073 0.80400002 4294574064
-0.057549573 0.2632429 0.80300003 4294508527
-0.056064423 0.2632429 0.80300003 4294442734
-0.054579273 0.2632429 0.80300003 4294442734
-0.053094123 0.2632429 0.80300003 4294574062
-0.051608972 0.2632429 0.80300003 4294507755
-0.050123822 0.2632429 0.80300003 4294770671
-0.048638672 0.2632429 0.80300003 4294836208
-0.0470948 0.26291507 0.80200005 4294901744
-0.045554627 0.26258725 0.80100006 4294901744
-0.044073176 0.26258725 0.80100006 4294901742
-0.042538553 0.26225942 0.80000001 4294836205
-0.04105895 0.26225942 0.80000001 4294770666
-0.039579347 0.26225942 0.80000001 4294770666
-0.038147371 0.26258725 0.80100006 4294639080
-0.03666592 0.26258725 0.80100006 4294704875
-0.035228394 0.26291507 0.80200005 4294836205
-0.033703018 0.26258725 0.80100006 4294770669
-0.032181341 0.26225942 0.80000001 4294705132
-0.030701738 0.26225942 0.80000001 4294770669
-0.029222136 0.26225942 0.80000001 4294770669
-0.027742535 0.26225942 0.80000001 4294442986
-0.026262932 0.26225942 0.80000001 4294574060
-0.02478333 0.26225942 0.80000001 4294442986
-0.023332858 0.26258725 0.80100006 4294639595
-0.021851407 0.26258725 0.80100006 4294705132
-0.020369956 0.26258725 0.80100006 4294639595
-0.018912086 0.26291507 0.80200005 4294573802
-0.017450517 0.2632429 0.80300003 4294508009
-0.015965367 0.2632429 0.80300003 4294573802
-0.014462183 0.26291507 0.80200005 4294705132
-0.012978883 0.26291507 0.80200005 4294836206
-0.011481248 0.26258725 0.80100006 4294836206
-0.0099997967 0.26258725 0.80100006 4294836206
-0.0085183447 0.26258725 0.80100006 4294836206
-0.0070368936 0.26258725 0.80100006 4294836206
-0.005548507 0.26225942 0.80000001 4294705132
-0.004068905 0.26225942 0.80000001 4294836205
-0.0025893031 0.26225942 0.80000001 4294770666
-0.0011110884 0.26258725 0.80100006 4294507494
0.0003708252 0.26291507 0.80200005 4294507496
0.0018564379 0.2632429 0.80300003 4294441703
0.0033415882 0.2632429 0.80300003 4294244324
0.0048267385 0.2632429 0.80300003 4294310117
0.0063040284 0.26291507 0.80200005 4294112738
0.0077873291 0.26291507 0.80200005 4293849566
0.0092706298 0.26291507 0.80200005 4293783773
0.010753931 0.26291507 0.80200005 4293454808
0.012237232 0.26291507 0.80200005 4293520601
0.013720533 0.26291507 0.80200005 4293520601
0.015203834 0.26291507 0.80200005 4293389015
0.016666327 0.26258725 0.80100006 4293389015
0.018147778 0.26258725 0.80100006 4293389015
0.019629231 0.26258725 0.80100006 4293191123
0.021110682 0.26258725 0.80100006 4292993744
0.022563927 0.26225942 0.80000001 4292862412
0.02404353 0.26225942 0.80000001 4293125330
0.025555035 0.26258725 0.80100006 4292862158
0.027070239 0.26291507 0.80200005 4292533447
0.028589144 0.2632429 0.80300003 4292730826
0.030074295 0.2632429 0.80300003 4292401861
0.031559445 0.2632429 0.80300003 4292467911
0.033044595 0.2632429 0.80300003 4291941567
0.034529746 0.2632429 0.80300003 4292007360
0.036059745 0.26357073 0.80400002 4291678397
0.037500046 0.2632429 0.80300003 4291941569
0.038985197 0.2632429 0.80300003 4291678397
0.040369548 0.26258725 0.80100006 4291546811
0.041798752 0.26225942 0.80000001 4291941569
0.04333245 0.26258725 0.80100006 4291481531
0.044813901 0.26258725 0.80100006 4291284152
0.046295352 0.26258725 0.80100006 4291284152
0.047776803 0.26258725 0.80100006 4291153336
0.049319752 0.26291507 0.80200005 4290955187
0.050866399 0.2632429 0.80300003 4291020980
0.052351549 0.2632429 0.80300003 4291481018
0.053903744 0.26357073 0.80400002 4291283639
0.055390742 0.26357073 0.80400002 4291086258
0.056877743 0.26357073 0.80400002 4291283637
0.058364742 0.26357073 0.80400002 4290954672
0.059777301 0.2632429 0.80300003 4291612345
0.061262451 0.2632429 0.80300003 4291217844
0.062747598 0.2632429 0.80300003 4291218099
0.064232752 0.2632429 0.80300003 4291547064
0.065636061 0.26291507 0.80200005 4291547064
0.06711936 0.26291507 0.80200005 4291481271
0.068517126 0.26258725 0.80100006 4291414965
0.069998577 0.26258725 0.80100006 4291349172
0.071480028 0.26258725 0.80100006 4291283637
0.073052563 0.26291507 0.80200005 4291086258
0.074535869 0.26291507 0.80200005 4291414966
0.076019168 0.26291507 0.80200005 4291086001
0.077599101 0.2632429 0.80300003 4291217587
0.079084255 0.2632429 0.80300003 4291349173
0.080569401 0.2632429 0.80300003 4291283379
0.081850186 0.26258725 0.80100006 4291283892
0.083331637 0.26258725 0.80100006 4291480759
0.084813088 0.26258725 0.80100006 4291217844
0.086402275 0.26291507 0.80200005 4291217844
0.087995157 0.2632429 0.80300003 4291283637
0.089480303 0.2632429 0.80300003 4291283637
0.090852179 0.26291507 0.80200005 4291283637
0.092220344 0.26258725 0.80100006 4291415223
0.093584813 0.26225942 0.80000001 4291283637
0.095064417 0.26225942 0.80000001 4291086771
0.096664697 0.26258725 0.80100006 4291152564
0.098391213 0.2632429 0.80300003 4291218357
0.099876359 0.2632429 0.80300003 4291349943
0.10136151 0.2632429 0.80300003 4291152564
0.10284666 0.2632429 0.80300003 4291349943
0.10407195 0.26258725 0.80100006 4291415736
0.10542163 0.26225942 0.80000001 4291349943
0.10690123 0.26225942 0.80000001 4291284149
0.10999776 0.26258725 0.80100006 4291086770
0.11161838 0.26291507 0.80200005 4291218357
0.11310169 0.26291507 0.80200005 4290758576
0.11458499 0.26291507 0.80200005 4291153593
0.11635774 0.26357073 0.80400002 4291219388
0.11784474 0.26357073 0.80400002 4280166680
0.11948016 0.26389855 0.80500007 4280430112
0.12111928 0.26422638 0.80600005 4279640598
0.12245785 0.26389855 0.80500007 4279640600
0.1239467 0.26389855 0.80500007 4279838236
0.12543556 0.26389855 0.80500007 4280298787
0.12692441 0.26389855 0.80500007 4280496166
0.12841326 0.26389855 0.80500007 4280496166
0.12990211 0.26389855 0.80500007 4280956717
0.13155417 0.26422638 0.80600005 4281154096
0.133375 0.26488203 0.80800003 4282338113
-0.30514291 0.26307967 0.79800004 4293587425
-0.30290595 0.26242033 0.79600006 4293390304
-0.30105504 0.26209065 0.79500002 4293390304
-0.29996154 0.26242033 0.79600006 4293390304
-0.29848933 0.26242033 0.79600006 4293587683
-0.29739025 0.26275 0.79700005 4293522145
-0.29628748 0.26307967 0.79800004 4293522145
-0.29481158 0.26307967 0.79800004 4293587425
-0.29296809 0.26275 0.79700005 4293653218
-0.29149404 0.26275 0.79700005 4293587425
-0.2896561 0.26242033 0.79600006 4293653218
-0.28782186 0.26209065 0.79500002 4293521632
-0.2863515 0.26209065 0.79500002 4293784035
-0.28416446 0.26143131 0.79300004 4293915367
-0.2826978 0.26143131 0.79300004 4293849574
-0.28123116 0.26143131 0.79300004 4293784035
-0.2801173 0.26176098 0.79400003 4293849828
-0.27899972 0.26209065 0.79500002 4293652963
-0.27752939 0.26209065 0.79500002 4293521377
-0.27571177 0.26176098 0.79400003 4293653476
-0.27424327 0.26176098 0.79400003 4293521890
-0.27243122 0.26143131 0.79300004 4293456097
-0.27096456 0.26143131 0.79300004 4293522145
-0.26983777 0.26176098 0.79400003 4293390304
-0.26836926 0.26176098 0.79400003 4293258718
-0.26757303 0.26242033 0.79600006 4293324253
-0.26643515 0.26275 0.79700005 4293390046
-0.26496109 0.26275 0.79700005 4293389276
-0.26348704 0.26275 0.79700005 4293520862
-0.26201299 0.26275 0.79700005 4293586653
-0.26021203 0.26242033 0.79600006 4293586653
-0.25873983 0.26242033 0.79600006 4293390044
-0.25726762 0.26242033 0.79600006 4293455839
-0.25579542 0.26242033 0.79600006 4293324253
-0.2540037 0.26209065 0.79500002 4293192412
-0.25253335 0.26209065 0.79500002 4293324511
-0.25106299 0.26209065 0.79500002 4293258718
-0.24959265 0.26209065 0.79500002 4293192925
-0.24812229 0.26209065 0.79500002 4293127387
-0.24696219 0.26242033 0.79600006 4293061594
-0.24548998 0.26242033 0.79600006 4293061081
-0.24371123 0.26209065 0.79500002 4292995288
-0.24193616 0.26176098 0.79400003 4292995288
-0.24077052 0.26209065 0.79500002 4292995288
-0.23930016 0.26209065 0.79500002 4293060826
-0.2378298 0.26209065 0.79500002 4293126619
-0.23665676 0.26242033 0.79600006 4293060826
-0.23518457 0.26242033 0.79600006 4293192412
-0.23371236 0.26242033 0.79600006 4293323998
-0.23224016 0.26242033 0.79600006 4293455584
-0.23076795 0.26242033 0.79600006 4293390304
-0.22929575 0.26242033 0.79600006 4293258718
-0.22782354 0.26242033 0.79600006 4293258718
-0.22635134 0.26242033 0.79600006 4293258973
-0.22487913 0.26242033 0.79600006 4293193180
-0.22368759 0.26275 0.79700005 4293193180
-0.22221354 0.26275 0.79700005 4293193180
-0.22101645 0.26307967 0.79800004 4293258973
-0.21954054 0.26307967 0.79800004 4293456352
-0.21779138 0.26275 0.79700005 4293390559
-0.21631733 0.26275 0.79700005 4293324766
-0.21484327 0.26275 0.79700005 4293587938
-0.21336922 0.26275 0.79700005 4293719524
-0.21189517 0.26275 0.79700005 4293653729
-0.21042112 0.26275 0.79700005 4293719522
-0.20894706 0.26275 0.79700005 4293587936
-0.20747301 0.26275 0.79700005 4293587936
-0.20625742 0.26307967 0.79800004 4293653729
-0.20478152 0.26307967 0.79800004 4293522145
-0.20305084 0.26275 0.79700005 4293653731
-0.20157678 0.26275 0.79700005 4293587170
-0.19985166 0.26242033 0.79600006 4293456352
-0.19813024 0.26209065 0.79500002 4293390559
-0.19665989 0.26209065 0.79500002 4293455839
-0.19543506 0.26242033 0.79600006 4293718241
-0.19420652 0.26275 0.79700005 4293652448
-0.1929743 0.26307967 0.79800004 4293652448
-0.19149838 0.26307967 0.79800004 4293981411
-0.1902606 0.26340935 0.79900002 4293784032
-0.18878286 0.26340935 0.79900002 4293587423
-0.18730511 0.26340935 0.79900002 4293719009
-0.18559478 0.26307967 0.79800004 4293653729
-0.18388815 0.26275 0.79700005 4293719524
-0.1824141 0.26275 0.79700005 4293456352
-0.18094005 0.26275 0.79700005 4293653731
-0.17946599 0.26275 0.79700005 4293587938
-0.17821527 0.26307967 0.79800004 4293719524
-0.17651789 0.26275 0.79700005 4293653218
-0.17504384 0.26275 0.79700005 4293653218
-0.17356978 0.26275 0.79700005 4293719011
-0.1718798 0.26242033 0.79600006 4293719011
-0.17019351 0.26209065 0.79500002 4293653218
-0.16893539 0.26242033 0.79600006 4293916390
-0.16767356 0.26275 0.79700005 4293850597
-0.16640805 0.26307967 0.79800004 4293719011
-0.16493213 0.26307967 0.79800004 4293653218
-0.16345623 0.26307967 0.79800004 4293653218
-0.16198033 0.26307967 0.79800004 4293653218
-0.16050443 0.26307967 0.79800004 4293587425
-0.15902853 0.26307967 0.79800004 4293587425
-0.15775006 0.26340935 0.79900002 4293455839
-0.15607673 0.26307967 0.79800004 4293653218
-0.15460081 0.26307967 0.79800004 4293587425
-0.15312491 0.26307967 0.79800004 4293653216
-0.15164901 0.26307967 0.79800004 4293850595
-0.15017311 0.26307967 0.79800004 4293653216
-0.14851087 0.26275 0.79700005 4294047458
-0.14685233 0.26242033 0.79600006 4293915872
-0.14538012 0.26242033 0.79600006 4293784286
-0.14390792 0.26242033 0.79600006 4293718493
-0.14261466 0.26275 0.79700005 4293981665
-0.14114061 0.26275 0.79700005 4294178790
-0.13966656 0.26275 0.79700005 4293981411
-0.1381925 0.26275 0.79700005 4294047204
-0.13688998 0.26307967 0.79800004 4294178792
-0.13558377 0.26340935 0.79900002 4294310378
-0.13410603 0.26340935 0.79900002 4294178790
-0.13262828 0.26340935 0.79900002 4293982181
-0.13115051 0.26340935 0.79900002 4293982181
-0.12967277 0.26340935 0.79900002 4293982181
-0.12819502 0.26340935 0.79900002 4293916388
-0.12671725 0.26340935 0.79900002 4293982181
-0.12523951 0.26340935 0.79900002 4294178790
-0.12376176 0.26340935 0.79900002 4294244583
-0.122284 0.26340935 0.79900002 4294376171
-0.12080625 0.26340935 0.79900002 4294310378
-0.1193285 0.26340935 0.79900002 4294244585
-0.11785074 0.26340935 0.79900002 4294310376
-0.116373 0.26340935 0.79900002 4294376169
-0.11489524 0.26340935 0.79900002 4294441962
-0.11341749 0.26340935 0.79900002 4294376169
-0.11193974 0.26340935 0.79900002 4294441962
-0.11032373 0.26307967 0.79800004 4294441962
-0.10884783 0.26307967 0.79800004 4294573802
-0.10737193 0.26307967 0.79800004 4294639595
-0.10602873 0.26340935 0.79900002 4294574060
-0.10455097 0.26340935 0.79900002 4294508523
-0.10320222 0.26373902 0.80000001 4294508523
-0.10159547 0.26340935 0.79900002 4294508523
-0.099992417 0.26307967 0.79800004 4294442986
-0.098639965 0.26340935 0.79900002 4294442986
-0.097162217 0.26340935 0.79900002 4294508523
-0.095684461 0.26340935 0.79900002 4294442986
-0.094324619 0.26373902 0.80000001 4294508523
-0.092845015 0.26373902 0.80000001 4294574060
-0.091365412 0.26373902 0.80000001 4294705132
-0.089885809 0.26373902 0.80000001 4294639082
-0.088406205 0.26373902 0.80000001 4294770668
-0.086926609 0.26373902 0.80000001 4294770668
-0.085447006 0.26373902 0.80000001 4294639082
-0.084072359 0.26406869 0.80100006 4294573289
-0.082590908 0.26406869 0.80100006 4294704875
-0.081008196 0.26373902 0.80000001 4294639082
-0.0795286 0.26373902 0.80000001 4294770669
-0.078048997 0.26373902 0.80000001 4294836206
-0.076569393 0.26373902 0.80000001 4294705134
-0.075183652 0.26406869 0.80100006 4294705134
-0.073794216 0.26439837 0.80200005 4294836206
-0.072310917 0.26439837 0.80200005 4294836206
-0.070827611 0.26439837 0.80200005 4294705132
-0.069344312 0.26439837 0.80200005 4294770669
-0.067776397 0.26406869 0.80100006 4294705132
-0.066212185 0.26373902 0.80000001 4294770669
-0.064651661 0.26340935 0.79900002 4294770669
-0.063173912 0.26340935 0.79900002 4294705132
-0.061773375 0.26373902 0.80000001 4294573802
-0.060444508 0.26439837 0.80200005 4294705132
-0.058961209 0.26439837 0.80200005 4294507755
-0.057477906 0.26439837 0.80200005 4294244837
-0.055924788 0.26406869 0.80100006 4294244837
-0.054443337 0.26406869 0.80100006 4294113251
-0.052961886 0.26406869 0.80100006 4293652700
-0.051480435 0.26406869 0.80100006 4293718493
-0.049936563 0.26373902 0.80000001 4293586907
-0.048517529 0.26406869 0.80100006 4293652187
-0.046977356 0.26373902 0.80000001 4293454808
-0.045440882 0.26340935 0.79900002 4293060050
-0.043963131 0.26340935 0.79900002 4293125845
-0.042432208 0.26307967 0.79800004 4292994257
