# .PCD v0.7 - Point Cloud Data file format
VERSION 0.7
FIELDS x y z
SIZE 4 4 4
TYPE F F F
COUNT 1 1 1
WIDTH 1333
HEIGHT 1
VIEWPOINT 0 0 0 1 0 0 0
POINTS 1333
DATA ascii
0.026476642 -0.64377034 -0.88532621
0.034699988 -0.64186537 -0.88542527
0.043434635 -0.64106095 -0.88388813
0.054711979 -0.64060891 -0.88368732
0.064727589 -0.64037281 -0.8833617
0.075469226 -0.64111453 -0.88439012
0.085679948 -0.64078701 -0.88427734
0.093743667 -0.64075947 -0.88389724
0.10619213 -0.64090526 -0.88443995
0.11495943 -0.64327097 -0.88541645
0.12146144 -0.64756918 -0.88474947
-0.31289828 -0.63488436 -0.88471186
-0.30484697 -0.63433659 -0.88523012
-0.29477215 -0.63421851 -0.88506728
-0.28459165 -0.63386756 -0.88457716
-0.27456123 -0.63382876 -0.88452268
-0.26431549 -0.6339066 -0.88543767
-0.25493309 -0.63409001 -0.88531482
-0.24478896 -0.63518202 -0.88598329
-0.23507741 -0.63534826 -0.88493472
-0.22513361 -0.63644522 -0.88474882
-0.21511626 -0.63543594 -0.88612539
-0.20460188 -0.63538647 -0.88517559
-0.19468147 -0.63712275 -0.88500714
-0.18534994 -0.63738728 -0.88491863
-0.17472689 -0.63669682 -0.88509905
-0.16502695 -0.63746572 -0.88411623
-0.15505762 -0.63742155 -0.88469887
-0.14590491 -0.63694835 -0.88439721
-0.13499533 -0.63768005 -0.88377798
-0.12553892 -0.63788539 -0.88385618
-0.11465076 -0.63824683 -0.88435817
-0.10522433 -0.63740188 -0.88390118
-0.094840564 -0.63694286 -0.88544089
-0.085911267 -0.63698131 -0.88424915
-0.075691566 -0.63711703 -0.8839711
-0.065299325 -0.63687396 -0.88410097
-0.058470428 -0.63362467 -0.88521224
0.022852218 -0.63511753 -0.88289326
0.036791224 -0.63971353 -0.88928485
0.045736805 -0.63969392 -0.88583201
0.054773193 -0.6395762 -0.88566905
0.064810716 -0.63945854 -0.88550615
0.070866913 -0.63969392 -0.88583201
0.083934575 -0.63969392 -0.88583201
0.096215546 -0.63946247 -0.88619673
0.10202825 -0.63969392 -0.88583201
0.025908027 -0.64348906 -0.87605286
0.033921834 -0.6414156 -0.8755042
0.041037682 -0.640728 -0.87484282
0.054686006 -0.64044613 -0.87558275
0.064966545 -0.64072639 -0.87484366
0.073868513 -0.64073944 -0.87560588
0.084297732 -0.64039439 -0.87595892
0.095434695 -0.64064777 -0.87467247
0.1048082 -0.6407727 -0.87508333
0.11433476 -0.64282382 -0.87574965
0.12045854 -0.64482027 -0.8759442
-0.31241933 -0.63467306 -0.87454456
-0.30496803 -0.63423306 -0.87489766
-0.29477805 -0.63281506 -0.87416273
-0.2846759 -0.63405633 -0.87465322
-0.27496171 -0.63456255 -0.87535065
-0.26501822 -0.63457257 -0.87536561
-0.25495586 -0.63509852 -0.87609142
-0.24501747 -0.63536763 -0.87601304
-0.23454788 -0.63639486 -0.87618959
-0.22453915 -0.63685715 -0.87492216
-0.21462685 -0.63602328 -0.87568259
-0.20539466 -0.63657022 -0.87512636
-0.19515452 -0.63677448 -0.87458485
-0.18470781 -0.63712454 -0.87551194
-0.17476843 -0.63717586 -0.87558496
-0.16483317 -0.63732654 -0.87449729
-0.15462017 -0.63792235 -0.87429756
-0.14452161 -0.63691318 -0.87498325
-0.13482766 -0.63752562 -0.87438232
-0.12478164 -0.63799721 -0.87439865
-0.11538891 -0.6368975 -0.87436002
-0.10460341 -0.63716549 -0.87489814
-0.09523619 -0.63700449 -0.87559032
-0.085265763 -0.63722187 -0.87732899
-0.075258702 -0.63692635 -0.87692225
-0.065206371 -0.63609874 -0.87578332
-0.0573726 -0.63369447 -0.87457341
0.01828834 -0.63081324 -0.87017471
0.021177446 -0.63539046 -0.87446022
0.045938864 -0.63933718 -0.87518388
0.054133389 -0.63945532 -0.87609076
0.063914843 -0.6394012 -0.87676352
0.074267685 -0.63957745 -0.87550706
0.082242742 -0.63957745 -0.87550706
0.092211567 -0.63957745 -0.87550706
0.10218038 -0.63957745 -0.87550706
0.0252543 -0.64208966 -0.86587745
0.033916429 -0.64047283 -0.86562419
0.040186446 -0.64004821 -0.86946177
0.055899296 -0.64032239 -0.86569512
0.065636277 -0.64026999 -0.86569202
0.075634569 -0.64058965 -0.86468428
0.085104741 -0.64052743 -0.86527687
0.095718995 -0.64146334 -0.86452091
0.10512101 -0.64077276 -0.86433578
0.1149323 -0.64146274 -0.86452115
0.12087191 -0.6433053 -0.86065304
-0.31170771 -0.63356876 -0.86396503
-0.3045789 -0.63376278 -0.86474133
-0.29473507 -0.63369226 -0.8655346
-0.28489658 -0.63379556 -0.86448365
-0.27498788 -0.63444018 -0.86515546
-0.26494187 -0.63400418 -0.86456054
-0.25529671 -0.63451952 -0.8652637
-0.2452807 -0.63498056 -0.86589247
-0.23473215 -0.63569367 -0.86594576
-0.22561257 -0.63664669 -0.86532211
-0.21463104 -0.63690698 -0.86503983
-0.20513508 -0.63751817 -0.86437917
-0.19501209 -0.63648564 -0.86545652
-0.18461964 -0.63655806 -0.86473083
-0.17493826 -0.63683325 -0.86528778
-0.16541551 -0.63727331 -0.86433929
-0.15507886 -0.63742572 -0.86386997
-0.14468418 -0.63713354 -0.86440873
-0.13501352 -0.63692111 -0.86433893
-0.1253473 -0.63775998 -0.86352473
-0.11498928 -0.63668865 -0.86490619
-0.10523572 -0.63718492 -0.86454749
-0.094863571 -0.63599163 -0.86523092
-0.084479742 -0.63562936 -0.86677825
-0.074548751 -0.63519317 -0.8661834
-0.06454137 -0.63388443 -0.86439878
-0.055434242 -0.63256967 -0.86489719
0.018242719 -0.63265401 -0.86603284
0.02074552 -0.6363579 -0.86610746
0.036334068 -0.63935006 -0.86425638
0.045647897 -0.63898164 -0.86446911
0.054475505 -0.63931131 -0.86609322
0.06573917 -0.63937443 -0.86523187
0.07566832 -0.63973331 -0.86571753
0.08559034 -0.63997257 -0.8660413
0.091527246 -0.63997257 -0.8660413
0.10538002 -0.63997257 -0.86604136
0.024057016 -0.64103997 -0.85599494
0.056310408 -0.64017826 -0.85322082
0.06597241 -0.64074838 -0.85305661
0.075655513 -0.64060003 -0.85432452
0.08384756 -0.64070445 -0.85333693
0.095280662 -0.64133805 -0.85477173
0.1046859 -0.64101309 -0.85315889
0.11490704 -0.64086688 -0.85316962
0.12219949 -0.64434689 -0.85358542
-0.312619 -0.63469797 -0.85424042
-0.3052029 -0.63302153 -0.85446608
-0.2952092 -0.63429296 -0.85488671
-0.28509113 -0.63424754 -0.85502833
-0.27529824 -0.63458627 -0.85529476
-0.26514208 -0.63469875 -0.85522968
-0.25521025 -0.63452733 -0.85540581
-0.24525835 -0.63493764 -0.85595798
-0.23493488 -0.63522804 -0.85492408
-0.22481443 -0.63537705 -0.85536289
-0.21533862 -0.63620645 -0.8539744
-0.20450594 -0.63701731 -0.85431105
-0.19440855 -0.63591504 -0.85510492
-0.18523563 -0.6369046 -0.85484445
-0.17548287 -0.63681734 -0.85499626
-0.16509573 -0.63690585 -0.85453278
-0.15509179 -0.63650882 -0.85434973
-0.14482103 -0.63758987 -0.85396814
-0.1348809 -0.6366455 -0.85476559
-0.12433494 -0.63652444 -0.85365087
-0.11539523 -0.63600242 -0.85531688
-0.10528478 -0.63647288 -0.85548848
-0.095437326 -0.63563335 -0.85526752
-0.085682631 -0.63504726 -0.85610622
-0.075185031 -0.63481128 -0.8559798
-0.064686894 -0.63400745 -0.85470504
-0.055581525 -0.63300568 -0.85460842
0.01809331 -0.63424551 -0.85502958
0.023994004 -0.6379801 -0.85461819
0.035748478 -0.63851893 -0.85425586
0.045560669 -0.63880104 -0.85463178
0.055108652 -0.63939613 -0.85661161
0.064817198 -0.63965172 -0.85698897
0.074042737 -0.63938642 -0.8554101
0.087307788 -0.63960904 -0.85701358
0.090757385 -0.6396879 -0.85581344
0.10533766 -0.63970882 -0.85649413
0.11329716 -0.63953716 -0.8556118
-0.050220229 -0.62816393 -0.85496116
0.021972086 -0.64005613 -0.84982723
0.066584468 -0.64048964 -0.84399587
0.073291309 -0.64016819 -0.84783798
0.085914604 -0.64076418 -0.84435564
0.095380023 -0.64082414 -0.84443521
0.10565451 -0.64149565 -0.84553218
0.11565491 -0.64193362 -0.84549582
0.12221748 -0.64528507 -0.8448289
-0.31264257 -0.63463944 -0.84355205
-0.30495986 -0.63320345 -0.84393024
-0.2953113 -0.63397914 -0.84496427
-0.28509337 -0.63427305 -0.84515542
-0.27510005 -0.63476896 -0.84578663
-0.26515901 -0.6346947 -0.84591758
-0.25485772 -0.63474071 -0.8446309
-0.24529225 -0.63450521 -0.84528887
-0.23491895 -0.63497806 -0.8448928
-0.22507429 -0.63502854 -0.84476262
-0.2152047 -0.63583934 -0.84403467
-0.20507193 -0.63653839 -0.8453632
-0.19479643 -0.63572937 -0.84408838
-0.18495893 -0.63637841 -0.84495032
-0.17497104 -0.63653588 -0.84516245
-0.16497412 -0.63663387 -0.84509134
-0.15489271 -0.63649637 -0.84510809
-0.14555706 -0.63643175 -0.84422183
-0.13504311 -0.63633794 -0.84512824
-0.12500578 -0.63597047 -0.84441119
-0.11501796 -0.63503271 -0.84536636
-0.10451472 -0.63537836 -0.8449071
-0.09451437 -0.63533467 -0.84553617
-0.084997907 -0.63501686 -0.84634739
-0.075249314 -0.63469416 -0.84591782
-0.06589549 -0.63305658 -0.84453464
-0.05521192 -0.63191587 -0.84461594
0.016460391 -0.63422549 -0.8452884
0.025718395 -0.63729048 -0.84391844
0.035761096 -0.6368804 -0.84357792
0.045154087 -0.63813901 -0.84408289
0.054937247 -0.63898975 -0.84520823
0.063378386 -0.63911223 -0.84536862
0.074721888 -0.63925242 -0.84528756
0.083555885 -0.63972181 -0.84617132
0.093968123 -0.63992441 -0.84643918
0.10175823 -0.63992441 -0.84643924
-0.050005917 -0.62969226 -0.84888268
0.064140275 -0.64052963 -0.83454287
0.073785432 -0.64052963 -0.83454293
0.087288648 -0.64052761 -0.83454394
0.094186753 -0.64061469 -0.8352285
0.10419014 -0.64109433 -0.83724779
0.11471366 -0.6416741 -0.83536667
0.12139532 -0.64488304 -0.83549345
-0.31181309 -0.63462138 -0.83468223
-0.30455494 -0.63336247 -0.83460087
-0.29484636 -0.63315833 -0.83433378
-0.28515303 -0.63368708 -0.83502924
-0.27515218 -0.63428605 -0.83562165
-0.26486802 -0.63422984 -0.83594275
-0.2550329 -0.63516051 -0.83551097
-0.24511366 -0.63474745 -0.83475661
-0.23541199 -0.63422412 -0.83510411
-0.22429639 -0.63497013 -0.83470827
-0.21492098 -0.63527143 -0.83396071
-0.20514189 -0.63578254 -0.83482993
-0.19509815 -0.63543433 -0.83417457
-0.18527709 -0.63584918 -0.83471912
-0.17498896 -0.63572389 -0.83435839
-0.16560079 -0.63594204 -0.83532614
-0.15544254 -0.63500941 -0.83518964
-0.14143699 -0.63612711 -0.83823919
-0.13399845 -0.63518006 -0.83584684
-0.12418437 -0.63554651 -0.83511043
-0.11476129 -0.63564414 -0.83550316
-0.10590977 -0.63579065 -0.836649
-0.095000483 -0.63467729 -0.83610719
-0.084851444 -0.633964 -0.83520913
-0.074528471 -0.63360572 -0.83492225
-0.064715505 -0.63214076 -0.83429188
-0.055670053 -0.63075417 -0.83431691
-0.048311543 -0.63033867 -0.83061159
0.015057427 -0.63351715 -0.83570468
0.025959201 -0.63569778 -0.83592111
0.035402648 -0.63656998 -0.83482742
0.044753633 -0.63750893 -0.83374649
0.054395337 -0.63767207 -0.83396024
0.06453789 -0.63942462 -0.83541173
0.075799838 -0.63936055 -0.83661991
0.082738221 -0.63946992 -0.83630931
0.097160943 -0.63967085 -0.83186316
0.10516052 -0.63978821 -0.83134174
0.11033113 -0.63991547 -0.83374268
-0.05317134 -0.62959319 -0.83277398
-0.045342542 -0.6280188 -0.83563155
0.01008129 -0.62846267 -0.83602476
0.088704437 -0.64016682 -0.82782406
0.091581345 -0.64016682 -0.82782406
0.11546259 -0.64100134 -0.82485527
0.12193501 -0.64373595 -0.82437772
-0.31209034 -0.63450122 -0.8235895
-0.30515808 -0.63364446 -0.82538331
-0.2949695 -0.63291246 -0.82462227
-0.28495473 -0.63324082 -0.82523412
-0.27489656 -0.63425827 -0.82618338
-0.26507598 -0.63370878 -0.82527399
-0.25531903 -0.63385236 -0.82585007
-0.24465956 -0.635037 -0.82532018
-0.23531739 -0.63390607 -0.82518983
-0.22517201 -0.63406622 -0.82593346
-0.21521778 -0.63546544 -0.82484186
-0.205265 -0.63520569 -0.82469821
-0.19506745 -0.63511664 -0.82438886
-0.18496644 -0.63533473 -0.82447964
-0.17525753 -0.6350916 -0.82590455
-0.16599461 -0.63466942 -0.82652354
-0.15598471 -0.63191706 -0.82642865
-0.13239357 -0.63323301 -0.82628477
-0.12509255 -0.6345157 -0.82550567
-0.11496185 -0.63523167 -0.82453907
-0.10515162 -0.63442284 -0.82555914
-0.095013462 -0.63413966 -0.82622325
-0.085429035 -0.6338948 -0.82590258
-0.075254254 -0.63414478 -0.82641029
-0.064414762 -0.63255429 -0.82434011
-0.057435568 -0.63122356 -0.8237499
0.0090232585 -0.63070363 -0.82174057
0.015300437 -0.6324721 -0.82596016
0.02580031 -0.63388127 -0.82567954
0.034956422 -0.63571227 -0.82454544
0.044730648 -0.63714248 -0.82372451
0.055210501 -0.63759732 -0.82468861
0.065613829 -0.63820851 -0.82507813
0.075087585 -0.6386503 -0.82564783
0.084222175 -0.63903612 -0.82443523
0.095503084 -0.63940179 -0.82335806
0.10555153 -0.63930827 -0.82362384
0.11139645 -0.63997102 -0.82447296
-0.053218912 -0.62882209 -0.82354867
-0.044408862 -0.62800497 -0.82483828
0.010010893 -0.62985736 -0.82684797
0.096061692 -0.64040834 -0.8136633
0.10299439 -0.64025754 -0.81564736
0.1181217 -0.64076656 -0.81477606
0.12257861 -0.643915 -0.81623
-0.31339166 -0.63555229 -0.81470734
-0.3049404 -0.63285017 -0.81530517
-0.29486784 -0.63355976 -0.81621999
-0.28448334 -0.6329124 -0.81538463
-0.27473077 -0.63296604 -0.81545478
-0.26463193 -0.63283414 -0.81506681
-0.25510374 -0.63275963 -0.81499666
-0.24537192 -0.63308483 -0.81516975
-0.23444846 -0.63346046 -0.81561893
-0.22496389 -0.63306844 -0.81539559
-0.21473731 -0.63427359 -0.81539059
-0.20479944 -0.63475972 -0.81470788
-0.1952033 -0.6346373 -0.81476831
-0.18489608 -0.63379467 -0.81499082
-0.17582875 -0.63308632 -0.81805551
-0.16919385 -0.63275892 -0.81824458
-0.12344698 -0.6341877 -0.81600833
-0.11489581 -0.63455027 -0.81443912
-0.10491267 -0.63463008 -0.81556058
-0.095222272 -0.63359141 -0.8154546
-0.08468575 -0.63328326 -0.81586343
-0.075203963 -0.63311791 -0.81565094
-0.065257199 -0.63174218 -0.81406838
-0.057265677 -0.63126296 -0.81356573
0.0092829606 -0.63062519 -0.81447273
0.015584636 -0.63145965 -0.81480128
0.024972774 -0.63378632 -0.81566286
0.03386825 -0.63510752 -0.81515652
0.044676874 -0.63610256 -0.8142522
0.055686705 -0.63716364 -0.81495917
0.064869232 -0.6371001 -0.81466061
0.075047672 -0.63829643 -0.81517577
0.084837988 -0.63908362 -0.81465697
0.094758436 -0.63970029 -0.81683505
0.10606022 -0.63967037 -0.81489575
0.11299134 -0.63935882 -0.81422424
-0.052089151 -0.62854403 -0.8143273
-0.044818223 -0.62783164 -0.81570071
-0.035259563 -0.62659377 -0.81457663
0.0035862657 -0.6274277 -0.81454492
0.11885271 -0.64022171 -0.80354357
0.12261883 -0.64305776 -0.80454552
-0.31240162 -0.63527316 -0.80553466
-0.30464473 -0.63210922 -0.80455929
-0.29461181 -0.63183796 -0.80491996
-0.28515363 -0.6326232 -0.80521369
-0.27508199 -0.63216782 -0.80534083
-0.26500267 -0.63196266 -0.80507874
-0.25508869 -0.6324293 -0.80488223
-0.24444845 -0.63238531 -0.80511689
-0.23507766 -0.63310975 -0.80534041
-0.2253343 -0.63343054 -0.80537516
-0.21547779 -0.63295382 -0.80439103
-0.20585153 -0.63382739 -0.80509102
-0.19527635 -0.63236284 -0.80438596
-0.18659328 -0.6323961 -0.80863905
-0.17804419 -0.63045764 -0.80918086
-0.12220193 -0.63361502 -0.80793536
-0.11484495 -0.6346786 -0.80612814
-0.10500687 -0.63481271 -0.80551183
-0.094895855 -0.63375121 -0.80535489
-0.08540953 -0.63276392 -0.80509996
-0.074777514 -0.63154954 -0.80436462
-0.065050505 -0.63129818 -0.80423063
-0.056445729 -0.63100576 -0.80386066
0.0088904044 -0.63100475 -0.80386132
0.015464613 -0.63213068 -0.80528963
0.02453419 -0.63407117 -0.80546439
0.03520887 -0.6351909 -0.80567843
0.045187678 -0.63545358 -0.80557477
0.054709945 -0.63652509 -0.80524492
0.06505882 -0.63755506 -0.80448073
0.074948862 -0.63755929 -0.80418259
0.085063234 -0.63884312 -0.80480152
0.094857447 -0.63924289 -0.80511916
0.10515738 -0.6392349 -0.8054719
0.11458719 -0.63897866 -0.80497181
-0.051923849 -0.62895334 -0.80510074
-0.045031682 -0.62768751 -0.80500674
-0.034672368 -0.62709451 -0.80377448
-0.025095223 -0.62581331 -0.80514395
-0.0059697824 -0.62749702 -0.80421859
0.0044737482 -0.62850147 -0.80387688
0.099273883 -0.64002419 -0.79442
0.10113818 -0.64002419 -0.79442
0.1195435 -0.64036566 -0.79191357
0.12312011 -0.64314008 -0.79535043
-0.31298479 -0.63525021 -0.79671443
-0.30487081 -0.63186079 -0.79486966
-0.29530656 -0.63157588 -0.79583359
-0.28520921 -0.63128579 -0.7946924
-0.27487573 -0.63154209 -0.79542005
-0.26516142 -0.63144463 -0.79567844
-0.2543079 -0.63183129 -0.79467583
-0.24561106 -0.6319443 -0.79518783
-0.23506247 -0.63274401 -0.79468387
-0.22513664 -0.63349372 -0.7949301
-0.21574125 -0.63344687 -0.79611802
-0.20548826 -0.63158953 -0.79640311
-0.11332109 -0.63342649 -0.79649717
-0.10484269 -0.63449621 -0.79620028
-0.09511707 -0.6332494 -0.79371268
-0.084806152 -0.63308573 -0.79496187
-0.074666493 -0.63231379 -0.79598492
-0.065148093 -0.63205677 -0.79500896
-0.055981353 -0.63076371 -0.79437804
-0.044850428 -0.63013941 -0.79088932
-0.034678169 -0.63013947 -0.79088938
-0.027280159 -0.63013947 -0.79088944
-0.015258394 -0.63013941 -0.79088932
-0.0042974507 -0.63076025 -0.79251051
0.0055759605 -0.63148642 -0.79516351
0.015830766 -0.63273728 -0.79571009
0.024671203 -0.63516378 -0.79572505
0.034677163 -0.6347158 -0.79497451
0.045445196 -0.6351999 -0.79528081
0.054797746 -0.6359449 -0.79504311
0.065285005 -0.63751435 -0.79442573
0.074909955 -0.63730961 -0.7939859
0.084945299 -0.63798046 -0.794649
0.095185503 -0.6383267 -0.79525572
0.10476349 -0.63878751 -0.79527831
0.11417576 -0.63901752 -0.79487973
-0.26083809 -0.6297949 -0.79339778
-0.25898486 -0.6297949 -0.79339778
-0.19729565 -0.62944382 -0.79590988
-0.052078288 -0.62967783 -0.79423517
-0.044781268 -0.62920618 -0.79592562
-0.034783311 -0.62801164 -0.795582
-0.025081743 -0.6276136 -0.7947576
-0.015489099 -0.62792569 -0.79577035
-0.0052399705 -0.62925088 -0.79651624
0.0017046245 -0.62893701 -0.79774213
0.11859286 -0.64006877 -0.78284729
0.12259954 -0.64171523 -0.78486598
-0.31168738 -0.63409644 -0.78706521
-0.30454218 -0.63167274 -0.78551364
-0.29519525 -0.63160223 -0.78542602
-0.2852529 -0.63152677 -0.78526884
-0.27499446 -0.63174701 -0.78560501
-0.265466 -0.63121748 -0.78571612
-0.25498599 -0.63171619 -0.78512937
-0.24469276 -0.63238198 -0.78570515
-0.23533154 -0.63241845 -0.7854982
-0.22664538 -0.63172001 -0.78535807
-0.21500464 -0.63174117 -0.78996462
-0.10434176 -0.6339587 -0.78528428
-0.094991021 -0.6350413 -0.78574997
-0.084872819 -0.63403755 -0.78527963
-0.075436294 -0.63239819 -0.78592879
-0.06459029 -0.63230389 -0.78542501
-0.054944377 -0.63112837 -0.7846058
-0.045123622 -0.63114792 -0.78421295
-0.035020661 -0.63140225 -0.78491175
-0.025510717 -0.63139594 -0.7849375
-0.015186378 -0.63123304 -0.78496569
-0.00507004 -0.63223785 -0.78621382
0.0050712391 -0.63242221 -0.78644401
0.015023023 -0.6334551 -0.78581494
0.025163544 -0.63581133 -0.78465265
0.035238855 -0.6354385 -0.78458583
0.044726904 -0.63559061 -0.78456676
0.054922748 -0.63617378 -0.78528857
0.065042466 -0.63665611 -0.78443265
0.07520777 -0.6376254 -0.78486574
0.085337952 -0.63790596 -0.78496194
0.094401836 -0.63743961 -0.78519011
0.10513292 -0.63812906 -0.78480107
0.11499967 -0.63839382 -0.78479135
-0.30318522 -0.62986511 -0.78181022
-0.26268965 -0.6295476 -0.78141618
-0.25980744 -0.62923014 -0.78102207
-0.051169716 -0.62984598 -0.78759474
-0.044715878 -0.62984598 -0.78759474
-0.021666456 -0.62984598 -0.78759474
0.12289619 -0.64057213 -0.77678317
-0.31219906 -0.63279861 -0.77395821
-0.30494884 -0.63133532 -0.77484822
-0.29486841 -0.6312117 -0.77504277
-0.28489056 -0.63137311 -0.77489442
-0.27481443 -0.63102597 -0.7748276
-0.26463991 -0.63134253 -0.77518374
-0.25501406 -0.63118887 -0.77534044
-0.24612315 -0.6315403 -0.77574319
-0.23916237 -0.63112843 -0.77761668
-0.1021302 -0.63446426 -0.77742285
-0.094432749 -0.63511807 -0.77505672
-0.085002974 -0.63485259 -0.77530915
-0.074974284 -0.63326341 -0.77543944
-0.065149441 -0.63301754 -0.77531624
-0.055575296 -0.6319921 -0.77427942
-0.044865586 -0.63181382 -0.77465492
-0.035338257 -0.63211584 -0.77473718
-0.024689207 -0.63309276 -0.77527291
-0.015350814 -0.63294232 -0.77501512
-0.0050243093 -0.63232785 -0.77556562
0.0049789809 -0.63214338 -0.77477157
0.014828258 -0.63414043 -0.77482814
0.025159782 -0.63605696 -0.77509189
0.035242017 -0.63643581 -0.77555341
0.044890638 -0.63648283 -0.77480024
0.05550237 -0.63696873 -0.77553529
0.064819969 -0.63597697 -0.77481741
0.075145334 -0.63735086 -0.77556384
0.084760182 -0.63778514 -0.77452064
0.095044553 -0.63782495 -0.77600968
0.10507594 -0.63751876 -0.77450454
0.11453235 -0.63800389 -0.77525091
0.1205679 -0.63907063 -0.77591807
-0.27253157 -0.6295138 -0.77277541
-0.24291825 -0.62980717 -0.77029663
-0.22818743 -0.62954438 -0.77853125
0.12538257 -0.64191723 -0.76445961
-0.31111711 -0.63252217 -0.7679593
-0.30487645 -0.63059688 -0.76511687
-0.2946842 -0.63082445 -0.76566797
-0.28585911 -0.63079989 -0.7647841
-0.27408585 -0.63082623 -0.76475
-0.26551217 -0.63095301 -0.76532024
-0.2559278 -0.6304009 -0.76725954
-0.09343227 -0.63473874 -0.76619846
-0.084513463 -0.63522083 -0.76443624
-0.074726328 -0.6344741 -0.76471531
-0.065166779 -0.63351846 -0.76440126
-0.054777671 -0.63420022 -0.76510876
-0.045059744 -0.63298184 -0.76494718
-0.034270048 -0.63227105 -0.7645852
-0.024909541 -0.63451743 -0.7647658
-0.014886645 -0.63633168 -0.76534009
-0.005131328 -0.63298625 -0.76490086
0.0050143152 -0.63295132 -0.76455534
0.014957696 -0.63501638 -0.76536459
0.025302345 -0.63556647 -0.76547045
0.035014756 -0.63597065 -0.76534039
0.045322333 -0.63694048 -0.76568329
0.054792248 -0.6366024 -0.7654112
0.065109752 -0.63620925 -0.7648682
0.074974276 -0.63653928 -0.76440442
0.084841646 -0.63716388 -0.7651512
0.095054291 -0.6378836 -0.76442385
0.1049808 -0.63772964 -0.76461798
0.11488293 -0.63691288 -0.76359594
0.12157595 -0.63814622 -0.76586705
-0.3046762 -0.62921458 -0.76394165
-0.29582939 -0.6296013 -0.76441109
-0.28219405 -0.62940788 -0.76417637
-0.27772525 -0.62951535 -0.76430678
-0.25669622 -0.62875283 -0.76282251
-0.2494188 -0.62945122 -0.76703805
-0.015908495 -0.6404056 -0.75368029
0.12513237 -0.64115459 -0.75566232
-0.31157899 -0.63303125 -0.75411695
-0.30479264 -0.63067627 -0.75690079
-0.29503891 -0.63059068 -0.75525308
-0.2848869 -0.63061577 -0.75531352
-0.27349478 -0.63111961 -0.75568259
-0.26602191 -0.63107955 -0.75508398
-0.092226818 -0.63338584 -0.75783825
-0.085248925 -0.63514161 -0.75497693
-0.074777544 -0.63559014 -0.75461686
-0.065148681 -0.63516253 -0.75536901
-0.05464128 -0.63488996 -0.75504524
-0.045157205 -0.63459969 -0.75497884
-0.035096172 -0.63315785 -0.75481659
-0.0249754 -0.6359725 -0.75472814
-0.014066389 -0.63874131 -0.75562912
-0.0050267708 -0.63492572 -0.75469482
0.0045784661 -0.63358784 -0.75477713
0.01501606 -0.63473672 -0.75553894
0.024382431 -0.6350708 -0.7553432
0.034785002 -0.63513893 -0.75458461
0.044824239 -0.63671601 -0.75645894
0.05547924 -0.6365782 -0.75494081
0.064856425 -0.63677281 -0.75453562
0.074758828 -0.63710278 -0.75501001
0.08510159 -0.63698179 -0.7554583
0.094823234 -0.6373657 -0.75432163
0.10514808 -0.63807374 -0.75498724
0.115197 -0.63792402 -0.75570428
0.12199733 -0.63877761 -0.75380147
-0.30374724 -0.62980151 -0.75355673
-0.29466107 -0.62955379 -0.75501198
-0.28547886 -0.62957746 -0.7539748
-0.27680436 -0.62937081 -0.75579405
-0.26107275 -0.62890244 -0.75523055
-0.25531086 -0.62737054 -0.75707722
-0.016390158 -0.64071399 -0.74486458
-0.31042507 -0.63347089 -0.74970615
-0.30696008 -0.63044995 -0.74432969
-0.29564038 -0.63051993 -0.74621373
-0.28748986 -0.63019204 -0.74582571
-0.27087057 -0.6309889 -0.74767512
-0.26514179 -0.63078815 -0.74617422
-0.085094705 -0.63571888 -0.74557936
-0.075416729 -0.63522667 -0.74482667
-0.064614147 -0.63586533 -0.74575192
-0.055213373 -0.63535553 -0.74515402
-0.044939876 -0.63414693 -0.7450819
-0.034684047 -0.6347928 -0.74554294
-0.025363797 -0.63677919 -0.74525571
-0.011022043 -0.63905734 -0.7446664
-0.0050874692 -0.63588411 -0.74484873
0.0052141249 -0.63318592 -0.744937
0.015086492 -0.63459766 -0.74546325
0.025034228 -0.63618028 -0.74578452
0.035065942 -0.63536936 -0.74534672
0.044671793 -0.63514137 -0.74561727
0.054576747 -0.63645154 -0.74537206
0.065230772 -0.63678896 -0.74500555
0.074812204 -0.63717842 -0.74483627
0.084979303 -0.63652164 -0.74545306
0.095163658 -0.63623822 -0.74450004
0.10482102 -0.63780016 -0.74568462
0.11519191 -0.63747382 -0.74553472
0.12295502 -0.63842964 -0.74530375
-0.30378449 -0.62916893 -0.74462026
-0.2954424 -0.62909472 -0.74477965
-0.28433859 -0.62873793 -0.74478889
-0.27550122 -0.62847245 -0.7445091
-0.26420918 -0.62997323 -0.74152571
-0.25818712 -0.62778062 -0.74352294
-0.011922354 -0.64002419 -0.73322093
0.12701881 -0.64147305 -0.73488635
-0.31225353 -0.63453424 -0.73350382
-0.30624321 -0.63079274 -0.73624134
-0.2809847 -0.63018578 -0.73774648
-0.27833807 -0.63018578 -0.73774648
-0.26542926 -0.63095647 -0.73864865
-0.25920081 -0.63084638 -0.73851973
-0.084116504 -0.6357944 -0.73517686
-0.074867122 -0.63518673 -0.73574209
-0.065222695 -0.63536215 -0.7356239
-0.054936741 -0.63495678 -0.7355997
-0.044565007 -0.63419527 -0.73576838
-0.03515264 -0.63444108 -0.73561043
-0.025049219 -0.63704669 -0.73521495
-0.014491647 -0.63911623 -0.73374534
-0.0048593828 -0.63663501 -0.73540866
0.0048532286 -0.63419586 -0.73576802
0.015272968 -0.63487685 -0.73586935
0.025260149 -0.63601685 -0.73499131
0.034972884 -0.63572222 -0.73515046
0.045535788 -0.63517785 -0.73499268
0.055026192 -0.63536227 -0.73415297
0.065038592 -0.63664687 -0.73503768
0.07510189 -0.63710415 -0.73471451
0.084742673 -0.63608617 -0.73554707
0.09503267 -0.63651288 -0.73510969
0.10528938 -0.63783568 -0.73473555
0.11470361 -0.63776261 -0.73581469
0.12218999 -0.63808304 -0.73567402
-0.30377603 -0.62903631 -0.73469847
-0.29507056 -0.6286847 -0.73557436
-0.28481805 -0.62874299 -0.73499978
-0.27466995 -0.62889069 -0.73458999
-0.26546422 -0.62923783 -0.73309761
-0.25579926 -0.62720555 -0.73461735
-0.088887542 -0.62859541 -0.7305817
-0.01415198 -0.64033383 -0.72341961
0.12860063 -0.64148515 -0.72573793
-0.31066784 -0.63256478 -0.72598064
-0.30842739 -0.63155794 -0.72482991
-0.28417742 -0.63011223 -0.72970599
-0.27629575 -0.63011223 -0.72970599
-0.26140818 -0.63011223 -0.72970599
-0.25790524 -0.63011223 -0.72970599
-0.090064749 -0.63064164 -0.72247213
-0.085583232 -0.63382286 -0.72543669
-0.07498493 -0.63493496 -0.72533399
-0.065319292 -0.63441718 -0.72585583
-0.054670084 -0.63468933 -0.72581249
-0.045349956 -0.63418806 -0.72592628
-0.035196379 -0.63397473 -0.72555143
-0.025080405 -0.63656294 -0.72501945
-0.015050055 -0.63907051 -0.72559237
-0.0045515327 -0.63648897 -0.72486967
0.0046576532 -0.63493466 -0.7249707
0.015309947 -0.63567102 -0.72525948
0.024761379 -0.63598377 -0.72499645
0.034541134 -0.63600856 -0.7247141
0.045139112 -0.6357525 -0.72459203
0.055440113 -0.63613123 -0.72449899
0.064123549 -0.63563055 -0.72428286
0.075214036 -0.63580036 -0.72466236
0.085139252 -0.63662362 -0.72524387
0.094341211 -0.63623923 -0.72477072
0.1045032 -0.63679665 -0.72430706
0.11474431 -0.63769299 -0.72438437
0.12393831 -0.63856417 -0.72501868
-0.30310842 -0.62876451 -0.72509557
-0.29434425 -0.62805271 -0.72575676
-0.28529859 -0.62869763 -0.72408074
-0.27477974 -0.6285609 -0.72299433
-0.26560983 -0.62871897 -0.72460854
-0.25409123 -0.62778229 -0.72428036
-0.24795583 -0.62472266 -0.72160059
-0.090192355 -0.62700719 -0.72611016
-0.089969039 -0.62846583 -0.72257364
-0.020395156 -0.64023185 -0.7140485
-0.015455531 -0.64079857 -0.7150408
0.12775391 -0.6410445 -0.71877539
-0.31010142 -0.6316359 -0.71843398
-0.30770662 -0.63028699 -0.71690339
-0.090927079 -0.6305812 -0.71211475
-0.085261971 -0.63318598 -0.71486014
-0.075190566 -0.63426781 -0.71465755
-0.064741634 -0.63398916 -0.71543956
-0.055174831 -0.63394624 -0.71458989
-0.045011051 -0.63420689 -0.71552849
-0.035265967 -0.63451856 -0.71599996
-0.024790036 -0.63681167 -0.71507835
-0.015001878 -0.63950473 -0.71478903
-0.0058966293 -0.63662708 -0.71497494
0.0049911737 -0.63483989 -0.71463948
0.015162195 -0.63534963 -0.71494275
0.025530627 -0.63544756 -0.71377963
0.035076641 -0.63593978 -0.71433264
0.044592272 -0.63550878 -0.71427363
0.0550001 -0.63595682 -0.71435159
0.065502949 -0.63542652 -0.71424705
0.074869029 -0.63657242 -0.71543318
0.084735669 -0.6366145 -0.71525824
0.094974674 -0.63683313 -0.71533704
0.10521773 -0.63707703 -0.71544313
0.11559431 -0.63802236 -0.71526641
0.12294817 -0.63701826 -0.71499664
-0.30328539 -0.62846059 -0.7150268
-0.29497811 -0.62778413 -0.71528602
-0.28523162 -0.62835854 -0.71532255
-0.27433485 -0.62878144 -0.7145834
-0.26498702 -0.62836236 -0.71535879
-0.25522241 -0.62764764 -0.71417314
-0.24548642 -0.62529993 -0.71529973
-0.091796473 -0.62480038 -0.71413267
-0.015034142 -0.64045537 -0.70294976
0.12957197 -0.64034301 -0.70532411
-0.30922523 -0.63028985 -0.70420009
-0.092077203 -0.63094836 -0.7053045
-0.084927499 -0.63326639 -0.70451379
-0.075005196 -0.63384485 -0.70440447
-0.065325156 -0.6333186 -0.70365632
-0.055321749 -0.6342473 -0.70485014
-0.045068771 -0.63475937 -0.70542049
-0.034742594 -0.63433117 -0.70494586
-0.02478848 -0.63637727 -0.70493692
-0.01503718 -0.63905525 -0.70408815
-0.0055853166 -0.63660872 -0.70496434
0.0047186776 -0.63453144 -0.70516711
0.015021636 -0.63464487 -0.70529413
0.025696125 -0.63602149 -0.70484972
0.035403274 -0.6357488 -0.70499867
0.045351978 -0.63565826 -0.70488536
0.054389622 -0.63582087 -0.70507854
0.065189779 -0.63602144 -0.7048499
0.074994519 -0.63609755 -0.70456207
0.085063845 -0.63574988 -0.70435423
0.094882011 -0.63576609 -0.70415604
0.10509301 -0.63619077 -0.70472962
0.11489791 -0.63686895 -0.70507544
0.12448154 -0.63645416 -0.7047165
-0.30429381 -0.62857538 -0.70530522
-0.29497376 -0.62775922 -0.70503122
-0.28505149 -0.62829471 -0.70526314
-0.27544048 -0.62825161 -0.70515686
-0.26480749 -0.62816691 -0.70537323
-0.2551091 -0.62750727 -0.7048617
-0.24476567 -0.62623119 -0.7046876
-0.23729855 -0.62248743 -0.70241803
-0.11044961 -0.62198436 -0.70177829
-0.10399844 -0.62409407 -0.70401698
-0.095834725 -0.62582105 -0.70518398
-0.020036582 -0.64005989 -0.69509518
-0.015428618 -0.64055192 -0.69374532
-0.0089525152 -0.64005989 -0.69509518
-0.10306656 -0.6310578 -0.69346064
-0.095146924 -0.63191873 -0.69545543
-0.085603788 -0.63462234 -0.69455385
-0.074947402 -0.63485456 -0.69489282
-0.064977594 -0.63468301 -0.69415832
-0.05456686 -0.63473469 -0.69497204
-0.044538479 -0.63477075 -0.69523895
-0.034412026 -0.63489014 -0.69438475
-0.024704743 -0.63653725 -0.69495291
-0.014956601 -0.63943505 -0.69811177
-0.0049576834 -0.63782674 -0.69522977
0.0045546964 -0.63536066 -0.69525141
0.014616262 -0.63473451 -0.6949721
0.024442194 -0.63528675 -0.69481999
0.035595454 -0.63542259 -0.69496834
0.04519397 -0.63499546 -0.69539475
0.055466421 -0.63460326 -0.69489145
0.064980194 -0.63562292 -0.6947934
0.074907497 -0.63604772 -0.69490153
0.084868871 -0.63582677 -0.69465262
0.095091589 -0.63595974 -0.69479775
0.10486337 -0.63608766 -0.69470978
0.11525457 -0.63606691 -0.69485074
0.12449584 -0.63603628 -0.69476938
-0.3032234 -0.6280365 -0.69510871
-0.29468828 -0.62767422 -0.69484538
-0.28487718 -0.62817627 -0.69465685
-0.27456325 -0.62851179 -0.69514531
-0.26524809 -0.62817955 -0.69521856
-0.25499067 -0.62734282 -0.69475603
-0.24495687 -0.62660074 -0.69382906
-0.23545475 -0.62526214 -0.69481677
-0.22847363 -0.62225527 -0.69151831
-0.1217458 -0.62181491 -0.6906178
-0.11512678 -0.62457675 -0.69389552
-0.10647535 -0.62805438 -0.69610876
-0.015678925 -0.64064574 -0.68840617
-0.31060126 -0.63176322 -0.68487418
-0.30858833 -0.63061816 -0.6872673
-0.11414831 -0.63124269 -0.68381625
-0.10502365 -0.63196665 -0.68510318
-0.09485057 -0.63352191 -0.68541169
-0.08457312 -0.63464165 -0.68436694
-0.074937865 -0.63508809 -0.68553889
-0.064408921 -0.6349526 -0.68470061
-0.054657351 -0.63496643 -0.68559653
-0.044466283 -0.63531208 -0.6850934
-0.035430368 -0.63523102 -0.68443429
-0.025825562 -0.63699424 -0.68511736
-0.015601853 -0.63872838 -0.68424475
-0.0056042783 -0.63786858 -0.68519819
0.0044782339 -0.63502127 -0.68477762
0.014826981 -0.63500589 -0.68458444
0.0251878 -0.63422412 -0.68460798
0.034707002 -0.63459808 -0.68457448
0.045243211 -0.63480955 -0.68551713
0.055180117 -0.63533682 -0.68512028
0.065057591 -0.63530743 -0.68412107
0.075212188 -0.63594252 -0.6847204
0.085337847 -0.63551682 -0.68426341
0.095334657 -0.63549483 -0.6839245
0.10528415 -0.63595104 -0.68457323
0.11515142 -0.63481498 -0.68455565
0.12457313 -0.63590252 -0.68572843
-0.3034361 -0.62781405 -0.68527782
-0.29499519 -0.62783861 -0.68545604
-0.28515801 -0.62827647 -0.68518287
-0.27477646 -0.62838775 -0.68484354
-0.26502252 -0.62844032 -0.68508196
-0.25501016 -0.62806696 -0.68565279
-0.24489309 -0.62689698 -0.68426985
-0.23484126 -0.62616283 -0.68446583
-0.22688504 -0.62310749 -0.68467546
-0.14403865 -0.62157345 -0.68118966
-0.13387173 -0.62315953 -0.68239373
-0.12524183 -0.62552315 -0.68522489
-0.11447953 -0.62887299 -0.68745005
-0.30947351 -0.63062131 -0.67052233
-0.13140228 -0.63097322 -0.67089653
-0.12338346 -0.63093811 -0.67322618
-0.11553306 -0.63185477 -0.67531425
-0.10481916 -0.63272303 -0.67494386
-0.095361121 -0.63315099 -0.67440224
-0.085177936 -0.63341177 -0.67482322
-0.075077757 -0.63465339 -0.67499453
-0.065479882 -0.63486153 -0.67504096
-0.055634305 -0.63498122 -0.67533165
-0.045688327 -0.63480043 -0.67522013
-0.035131145 -0.63402689 -0.67501193
-0.025351372 -0.63623077 -0.67547661
-0.015443035 -0.63747728 -0.67426211
-0.0053209178 -0.63673466 -0.67527652
0.0045885183 -0.63445228 -0.6749981
0.014666697 -0.63481486 -0.67455703
0.024851033 -0.63404369 -0.67489719
0.034634195 -0.63519067 -0.67538983
0.044435378 -0.63408893 -0.67524767
0.054637924 -0.63488048 -0.67505574
0.064620115 -0.6346069 -0.67476457
0.074808545 -0.63413334 -0.67451125
0.084871471 -0.6347931 -0.67417592
0.094292596 -0.63481313 -0.67451084
0.10494876 -0.63514137 -0.67447352
0.11498408 -0.63482332 -0.67602873
0.12417336 -0.63526607 -0.6752308
-0.30439788 -0.6276418 -0.67577881
-0.29500812 -0.62782317 -0.67606384
-0.28514668 -0.6276589 -0.67553931
-0.27547571 -0.62754637 -0.67532873
-0.26450622 -0.6285882 -0.67516035
-0.25485551 -0.62850004 -0.6755296
-0.24492911 -0.62824196 -0.67492229
-0.23518537 -0.62696081 -0.67484474
-0.22471923 -0.62430155 -0.67541444
-0.2175823 -0.62306273 -0.67211503
-0.16254656 -0.62252313 -0.67034805
-0.15363938 -0.62265116 -0.67295313
-0.14468417 -0.6251179 -0.67509609
-0.13539307 -0.62646604 -0.6754874
-0.12657708 -0.62917405 -0.67608678
-0.11982971 -0.62976265 -0.67910105
-0.13189426 -0.63124818 -0.66459692
-0.12470128 -0.63198781 -0.66527385
-0.11473036 -0.63256294 -0.66503906
-0.10485706 -0.63260591 -0.66447908
-0.095008537 -0.63392031 -0.66498858
-0.084659494 -0.63363034 -0.66551334
-0.075074546 -0.63540494 -0.66549546
-0.065135248 -0.63616365 -0.66501313
-0.05475248 -0.63482714 -0.66467619
-0.045029342 -0.63455719 -0.66532487
-0.035175513 -0.6336723 -0.66491193
-0.025448866 -0.63482964 -0.66489506
-0.014988029 -0.63663042 -0.66432357
-0.0054722521 -0.63593924 -0.66500413
0.0047755144 -0.63397312 -0.66438073
0.014543784 -0.63454318 -0.66479385
0.024113962 -0.63415086 -0.6645667
0.034227658 -0.63463253 -0.66449136
0.045004107 -0.63422543 -0.66497737
0.055088338 -0.63434321 -0.66510177
0.065051474 -0.63481766 -0.66559774
0.075131558 -0.63484424 -0.6657002
0.085230291 -0.6347422 -0.66458654
0.095287815 -0.63422436 -0.66533321
0.105335 -0.63494051 -0.6650086
0.11516161 -0.63401169 -0.66475433
0.12466329 -0.63482708 -0.66449147
0.13103631 -0.63780099 -0.6640678
-0.30408913 -0.6275813 -0.66529429
-0.29520437 -0.62708026 -0.66563863
-0.28466055 -0.62762082 -0.66540611
-0.27497882 -0.62751538 -0.66560942
-0.26472232 -0.62761337 -0.66499394
-0.2551983 -0.62794656 -0.66473681
-0.24486315 -0.62826091 -0.66501194
-0.23491208 -0.62760073 -0.66482049
-0.22483639 -0.62566531 -0.66526097
-0.21539801 -0.62398475 -0.66434664
-0.18066216 -0.62076783 -0.66004544
-0.17346312 -0.62222713 -0.66142988
-0.16516988 -0.62485832 -0.66439933
-0.15505271 -0.62539732 -0.66538763
-0.14568327 -0.62876362 -0.66569304
-0.13678384 -0.62897944 -0.66548693
-0.3105846 -0.63138443 -0.6573801
-0.30850455 -0.63094217 -0.6550951
-0.15095638 -0.63063633 -0.65203846
-0.14648232 -0.63064831 -0.65347493
-0.13448825 -0.63145131 -0.655343
-0.12483473 -0.63212544 -0.65480787
-0.11502177 -0.63259399 -0.6547721
-0.104871 -0.63270015 -0.65472674
-0.09508545 -0.63312459 -0.65483582
-0.085015483 -0.63330287 -0.65527683
-0.075244613 -0.63470447 -0.65528548
-0.064610355 -0.63474804 -0.65444839
-0.054609507 -0.63452041 -0.65478426
-0.04456526 -0.63438487 -0.65478176
-0.03467286 -0.63418394 -0.65520775
-0.024937071 -0.63432592 -0.65471941
-0.015464383 -0.63513416 -0.6548686
-0.0050219665 -0.63495427 -0.65505654
0.0044950997 -0.63414681 -0.65453416
0.014733703 -0.63376337 -0.65396363
0.025295643 -0.63376594 -0.6543175
0.035829753 -0.6337589 -0.65476888
0.04535374 -0.63399714 -0.65438002
0.055452511 -0.63372064 -0.65440422
0.065014318 -0.63444525 -0.65484285
0.074992739 -0.63423824 -0.65477866
0.084629618 -0.63435489 -0.654751
0.09470655 -0.63390934 -0.65516734
0.10525947 -0.63455015 -0.65510046
0.11495017 -0.63452029 -0.65469193
0.12496796 -0.63512063 -0.65494591
0.13045003 -0.6378026 -0.65944803
-0.30345321 -0.6280297 -0.65510553
-0.29538393 -0.62723249 -0.65535074
-0.28479064 -0.62730509 -0.65507215
-0.27472758 -0.62730765 -0.65487611
-0.26505309 -0.62689674 -0.65508568
-0.25499579 -0.6281836 -0.65464652
-0.24538136 -0.62708557 -0.65501231
-0.23551443 -0.6273635 -0.65502512
-0.22462457 -0.62786764 -0.65580636
-0.21451686 -0.62556428 -0.65536654
-0.20730735 -0.62209851 -0.65263754
-0.1917581 -0.62241936 -0.65201938
-0.18460916 -0.62287235 -0.65436763
-0.17528234 -0.62490624 -0.65509325
-0.16476536 -0.62806678 -0.65527391
-0.15525374 -0.62866956 -0.65598303
-0.144385 -0.62964869 -0.65667504
-0.13900027 -0.62971538 -0.65641922
-0.3083407 -0.6305362 -0.64516807
-0.23802447 -0.6305362 -0.64516807
-0.1547319 -0.63051754 -0.64437062
-0.14260495 -0.63056058 -0.64669359
-0.13393743 -0.63128877 -0.64441866
-0.12516357 -0.63172346 -0.6448378
-0.11495461 -0.63234395 -0.64497775
-0.10516634 -0.63180578 -0.64464885
-0.094760567 -0.6324116 -0.64477825
-0.084998026 -0.63309288 -0.64471841
-0.074842893 -0.63332516 -0.64466447
-0.065240249 -0.6329174 -0.64472806
-0.055410516 -0.63317496 -0.64451069
-0.045117218 -0.6337074 -0.64517623
-0.03457113 -0.63299429 -0.64432627
-0.024540452 -0.63410401 -0.64523286
-0.015232945 -0.6342091 -0.64513487
-0.0052662068 -0.63423032 -0.64558536
0.0044539482 -0.63413924 -0.64549351
0.014974331 -0.63351101 -0.64485264
0.025543416 -0.63401729 -0.6451444
0.035216987 -0.63371748 -0.64506346
0.044921231 -0.63356733 -0.64490962
0.054421749 -0.63369846 -0.6454742
0.064899519 -0.63420558 -0.6451878
0.075286426 -0.63405716 -0.64556825
0.085398309 -0.63429797 -0.6445359
0.095434099 -0.63355589 -0.64552027
0.10464395 -0.6333313 -0.64489371
0.1149656 -0.63505149 -0.64514929
0.12444722 -0.63490266 -0.64483273
0.13031501 -0.63764089 -0.64568496
-0.30411658 -0.62837315 -0.64547873
-0.295113 -0.62736851 -0.64533424
-0.28535956 -0.62732887 -0.64598453
-0.27490386 -0.62808615 -0.64587981
-0.26483503 -0.62786376 -0.64552033
-0.25481334 -0.62788022 -0.64502716
-0.24488829 -0.62808108 -0.6453225
-0.23533906 -0.62802774 -0.64619291
-0.22537686 -0.62723589 -0.64527732
-0.21432085 -0.62739044 -0.64549428
-0.20495795 -0.62597173 -0.64479506
-0.19440562 -0.62377661 -0.64392114
-0.1847312 -0.62573147 -0.64465851
-0.17486395 -0.62780255 -0.64543766
-0.16503225 -0.62745798 -0.64503562
-0.15608756 -0.62972367 -0.64833152
-0.14518452 -0.62973177 -0.64537007
-0.13771084 -0.62963617 -0.64585268
-0.2666418 -0.63016307 -0.63152707
-0.20829649 -0.63037848 -0.63833094
-0.1717827 -0.63016307 -0.63152707
-0.16013545 -0.63037848 -0.63833094
-0.15407243 -0.63059968 -0.63635564
-0.14460254 -0.63090813 -0.6352272
-0.13508506 -0.63077116 -0.63510197
-0.12484293 -0.63170743 -0.63563931
-0.11538278 -0.63114703 -0.63537705
-0.10465254 -0.6312198 -0.63509601
-0.094530016 -0.63191533 -0.63508183
-0.085277997 -0.63229877 -0.63476855
-0.075270139 -0.63247895 -0.63511974
-0.064403683 -0.63162774 -0.63478714
-0.054897249 -0.63284534 -0.63531905
-0.045268457 -0.63269299 -0.63516641
-0.035049681 -0.63297302 -0.63576084
-0.024565995 -0.63329309 -0.63509375
-0.01482769 -0.63333875 -0.63508224
-0.0052114353 -0.63311994 -0.63559347
0.0046253656 -0.63215154 -0.63448989
0.014985147 -0.63312918 -0.63516492
0.025499124 -0.63348734 -0.63520366
0.0348779 -0.6338371 -0.63521791
0.044512037 -0.63323063 -0.63468283
0.055231187 -0.63280344 -0.63519877
0.06512484 -0.63417006 -0.63571423
0.074929163 -0.634386 -0.63672006
0.084932335 -0.63427275 -0.63553572
0.094932906 -0.63393652 -0.63636899
0.10514393 -0.63407069 -0.63565797
0.11483379 -0.63471872 -0.63530034
0.12507644 -0.63458127 -0.63452774
0.13181333 -0.63692212 -0.63282096
-0.30299988 -0.62730414 -0.6357758
-0.29453939 -0.62728184 -0.6352765
-0.28512156 -0.62750357 -0.63515544
-0.27551332 -0.62719607 -0.63497227
-0.26532444 -0.6279521 -0.63448322
-0.25469121 -0.62710607 -0.63548207
-0.24503802 -0.62799221 -0.63571966
-0.2341617 -0.62765062 -0.63507706
-0.22502185 -0.62731063 -0.6353029
-0.21492396 -0.62739611 -0.63454002
-0.20544633 -0.62845349 -0.6351909
-0.19438337 -0.62679559 -0.63492399
-0.18486182 -0.62781459 -0.63464707
-0.17545491 -0.62803966 -0.63466561
-0.16529103 -0.62853187 -0.63508213
-0.1560335 -0.62932098 -0.63405615
-0.14561097 -0.62927002 -0.63847607
-0.13584237 -0.62923843 -0.63404042
-0.1113294 -0.62951183 -0.63305783
-0.10813716 -0.62951183 -0.63305783
-0.30724254 -0.63041496 -0.62098938
-0.14386472 -0.63072842 -0.62799323
-0.13608161 -0.63131893 -0.62464631
-0.12469853 -0.6307317 -0.62806463
-0.11401433 -0.63056391 -0.62686938
-0.10337847 -0.63086361 -0.62446612
-0.095365256 -0.63141966 -0.62502831
-0.084904984 -0.6321165 -0.62462586
-0.07651265 -0.63116646 -0.62418455
-0.064583041 -0.63156241 -0.62486607
-0.055069245 -0.63242424 -0.62519312
-0.044627305 -0.63205159 -0.62541837
-0.035523612 -0.63157767 -0.62476569
-0.02458057 -0.63242161 -0.6255188
-0.014576185 -0.6322 -0.62466305
-0.0050179381 -0.63220114 -0.62505466
0.0051599131 -0.63296241 -0.62565506
0.015543097 -0.63235164 -0.62457556
0.024709007 -0.63254368 -0.62476391
0.03488848 -0.63255799 -0.62401557
0.045446467 -0.63302135 -0.6251756
0.054953575 -0.63219053 -0.62474233
0.065110475 -0.63326651 -0.62515938
0.07481432 -0.63240039 -0.62543619
0.085773535 -0.63190287 -0.62521094
0.095023289 -0.63300848 -0.62556344
0.10490026 -0.63320905 -0.62478024
0.11515667 -0.6330474 -0.62520176
0.12514214 -0.63418847 -0.62523085
0.13148603 -0.63631272 -0.62465686
-0.30336237 -0.62747353 -0.62479615
-0.2957173 -0.62703556 -0.62497103
-0.28486541 -0.62742865 -0.62454504
-0.2747272 -0.62712544 -0.62437832
-0.26514536 -0.62811333 -0.6244055
-0.25501722 -0.62708604 -0.62502158
-0.24503288 -0.62681031 -0.62545443
-0.23510996 -0.627213 -0.62507963
-0.22503209 -0.62740165 -0.62543833
-0.21497795 -0.62762064 -0.62474102
-0.204546 -0.62663233 -0.62450564
-0.19535343 -0.62750733 -0.62484908
-0.18481795 -0.62847185 -0.62454879
-0.17523499 -0.62897331 -0.62472987
-0.16502042 -0.62834221 -0.62417209
-0.15473934 -0.62896115 -0.62483925
-0.14597428 -0.62938094 -0.62362415
-0.13301975 -0.62938601 -0.62504756
-0.12547387 -0.62959862 -0.62420315
-0.11570965 -0.62934756 -0.62422299
-0.1067849 -0.62958968 -0.62446809
-0.073443383 -0.62972754 -0.62513894
-0.068788849 -0.6299203 -0.62550884
-0.027970023 -0.62967587 -0.62026143
-0.010636488 -0.62967587 -0.62026143
0.079182744 -0.62967587 -0.62026143
0.082334287 -0.62967587 -0.62026143
0.13496558 -0.64222962 -0.61763233
-0.1924125 -0.63029987 -0.61874634
-0.18060806 -0.63029987 -0.61874634
-0.17824717 -0.63029987 -0.61874634
-0.15116908 -0.63050628 -0.61824232
-0.1454317 -0.63072062 -0.61666954
-0.13487358 -0.63045943 -0.61799443
-0.12265919 -0.63042265 -0.61735582
-0.11529011 -0.63029987 -0.61874634
-0.10493845 -0.6305781 -0.61743104
-0.09444914 -0.63125783 -0.61462885
-0.085076451 -0.63140815 -0.61454636
-0.074260183 -0.63059181 -0.61432648
-0.065054819 -0.63141698 -0.61463726
-0.056316622 -0.63139403 -0.61558884
-0.044894356 -0.63052332 -0.61769366
-0.034304447 -0.63072801 -0.61493886
-0.025548397 -0.63119221 -0.61501449
-0.015116925 -0.63157237 -0.61459047
-0.0055376906 -0.63092744 -0.6142171
0.0051014558 -0.63168222 -0.61481416
0.015282204 -0.6309616 -0.6143229
0.024720505 -0.63193601 -0.61505938
0.034913797 -0.63181627 -0.61494291
0.045083161 -0.63134557 -0.61448616
0.054952268 -0.63191736 -0.6148814
0.065122217 -0.63199496 -0.61528069
0.075236008 -0.63272232 -0.6154508
0.084733166 -0.63256699 -0.61556625
0.094795324 -0.63224947 -0.61548257
0.10499499 -0.63155621 -0.6149419
0.11500032 -0.63280261 -0.61485219
0.12487836 -0.63324565 -0.61407149
0.13217154 -0.63709557 -0.6145342
-0.30335757 -0.6277895 -0.61508214
-0.29457185 -0.62674493 -0.61473686
-0.28493997 -0.62670559 -0.6145702
-0.27475402 -0.6275925 -0.61520207
-0.26529112 -0.62760293 -0.61537385
-0.25508341 -0.62813181 -0.61534446
-0.24476406 -0.6269238 -0.61522996
-0.23478514 -0.62741679 -0.61583829
-0.2248152 -0.62714469 -0.6155113
-0.215159 -0.62752599 -0.61454058
-0.20485106 -0.62743628 -0.6148572
-0.19537202 -0.62890846 -0.61493093
-0.18508577 -0.62867254 -0.61517894
-0.17460139 -0.62860447 -0.61450773
-0.16518202 -0.62867618 -0.61484849
-0.15565765 -0.62891465 -0.615206
-0.14456557 -0.62916064 -0.6151703
-0.13458273 -0.62871718 -0.61311686
-0.12560028 -0.62912005 -0.6149531
-0.11505575 -0.62873238 -0.61431092
-0.10579308 -0.62926137 -0.61280262
-0.099748284 -0.62930667 -0.61354631
-0.07436084 -0.62909496 -0.61660784
-0.068859279 -0.62893683 -0.6195333
-0.052531149 -0.62905467 -0.61270207
-0.045251496 -0.6292029 -0.61260551
-0.0019558487 -0.62930667 -0.61354631
0.01525562 -0.62930667 -0.61354631
0.1020953 -0.62930667 -0.61354631
-0.16351449 -0.6302253 -0.60608774
-0.15186264 -0.6302253 -0.60608774
-0.14014834 -0.63048625 -0.60016358
-0.13011248 -0.6302253 -0.60608774
-0.124749 -0.63060045 -0.60644853
-0.11593322 -0.63053703 -0.60556138
-0.10059443 -0.6302253 -0.60608774
-0.094955198 -0.63067752 -0.60377383
-0.084731497 -0.63083959 -0.6049633
-0.076411642 -0.63088113 -0.60380733
-0.063406482 -0.63077593 -0.60730946
-0.054658927 -0.63066703 -0.60520291
-0.046472631 -0.63088745 -0.60332817
-0.033314422 -0.6309377 -0.60329485
-0.026090343 -0.63118821 -0.60558206
-0.014577684 -0.6308865 -0.60482842
-0.0045112036 -0.63051397 -0.60452324
0.0053474633 -0.63103354 -0.60504383
0.015259699 -0.63066083 -0.60420609
0.024867076 -0.63184595 -0.60558498
0.035123952 -0.63110304 -0.60553479
0.045310032 -0.63171381 -0.60467088
0.054603938 -0.63092428 -0.60501802
0.06504821 -0.63104814 -0.60515082
0.074850515 -0.63233107 -0.6055488
0.084520064 -0.63185972 -0.60552883
0.094845004 -0.63142335 -0.60511595
0.10587675 -0.63169611 -0.60488325
0.11496811 -0.63219774 -0.60472679
0.12512945 -0.63352549 -0.6045841
0.13201343 -0.6360538 -0.60593015
-0.3028166 -0.62631452 -0.60470831
-0.29511449 -0.62659287 -0.60479301
-0.28486603 -0.62696671 -0.60484457
-0.27502352 -0.62702429 -0.60521674
-0.26487529 -0.62636387 -0.60498124
-0.25563347 -0.62688529 -0.60459185
-0.24491839 -0.62686825 -0.60480672
-0.23479314 -0.62639987 -0.60520673
-0.2246841 -0.62660921 -0.60474855
-0.21534623 -0.62767959 -0.60492957
-0.20489819 -0.62761891 -0.60481286
-0.19518182 -0.62862724 -0.60462654
-0.18486758 -0.62816632 -0.60492593
-0.17479542 -0.62832654 -0.60433328
-0.16517024 -0.62872893 -0.60556602
-0.15490367 -0.62877578 -0.60508573
-0.14462534 -0.62842572 -0.60457844
-0.13482602 -0.62757021 -0.60408854
-0.1250537 -0.62922025 -0.6050514
-0.11487759 -0.62891489 -0.60521722
-0.10529213 -0.62841707 -0.60494614
-0.095805317 -0.62954068 -0.60518384
-0.086136781 -0.6294502 -0.60122359
-0.073422328 -0.6292659 -0.60532194
-0.065981716 -0.62892842 -0.60330021
-0.054822583 -0.62926525 -0.60471749
-0.044180192 -0.62907517 -0.60623217
-0.036878064 -0.62884122 -0.60457742
-0.022491889 -0.62921536 -0.60182112
-0.015871504 -0.62934953 -0.60370666
-0.0056524025 -0.6295355 -0.6033684
0.004167648 -0.62984151 -0.60297358
0.014958004 -0.62939429 -0.60433513
0.028990947 -0.6299023 -0.60165542
0.035175685 -0.6299023 -0.60165542
0.04310254 -0.62969697 -0.60610414
0.056328308 -0.62939358 -0.60293895
0.064553179 -0.6299023 -0.60165542
0.099639393 -0.62976539 -0.60462123
0.10244671 -0.62942725 -0.60621864
-0.15195511 -0.63021916 -0.59685367
-0.14969316 -0.63050562 -0.59206951
-0.096148871 -0.63075823 -0.59554178
-0.083966285 -0.63080603 -0.59622622
-0.073743224 -0.63069683 -0.59426844
-0.065858759 -0.63100773 -0.59345919
-0.059484616 -0.63069916 -0.59426713
-0.04660422 -0.63031036 -0.59795576
-0.034902323 -0.63060027 -0.59552705
-0.025746228 -0.63070726 -0.5954172
-0.015551978 -0.63094568 -0.59546202
-0.0029791147 -0.63145417 -0.59549111
0.0043463837 -0.63088518 -0.59553653
0.014441937 -0.63049203 -0.59595382
0.024708612 -0.63170338 -0.59559983
